ncols         265
nrows         92
xllcorner     313875
yllcorner     7656375
cellsize      250.00
NODATA_value  -9999
0 0 0 0 0 0 0 0 0 0 0 0 0 0 0 0 0 0 0 0 0 0 0 0 0 0 0 0 0 0 1 4 7 7 10 10 13 11 10 9 8 16 20 78 95 127 158 178 199 219 231 213 288 318 358 396 435 510 553 464 363 231 177 214 389 512 819 893 943 892 933 952 1002 1026 1045 1041 1053 1066 1082 1142 1281 1445 1439 1455 1456 1462 1471 1481 1482 1504 1458 1262 886 1367 1652 1659 1704 1718 1731 1744 1749 1779 1741 1724 1702 1685 1559 1485 1555 1563 1571 1348 1076 800 799 654 488 497 665 983 1342 1449 1434 1403 1383 1351 1329 1311 1289 1274 1244 1211 1184 1185 1145 1146 1121 1079 1072 1054 1019 991 960 919 876 830 795 796 791 776 782 767 734 746 722 731 705 688 659 639 626 562 512 487 449 423 397 373 350 323 311 295 264 248 153 145 135 130 136 140 139 142 137 104 98 96 78 74 81 74 58 58 59 52 49 43 39 30 24 20 18 16 10 6 0 0 0 0 0 0 0 0 0 0 0 0 0 0 0 0 0 0 0 0 0 0 0 0 0 0 0 0 0 0 0 0 0 0 0 0 0 0 0 0 0 0 0 0 0 0 0 0 0 0 0 0 0 0 0 0 0 0 0 0 0
0 0 0 0 0 0 0 0 0 0 0 0 0 0 0 0 0 0 0 0 0 0 0 0 0 0 0 0 0 0 2 6 5 6 8 9 16 27 27 42 58 67 73 82 89 125 159 183 210 233 251 263 249 327 349 397 446 530 540 637 650 441 191 182 231 418 650 831 893 924 946 1001 1031 1033 1053 1064 1063 1078 1103 1169 1416 1448 1472 1460 1479 1504 1503 1510 1512 1538 1569 1550 1483 1597 1682 1696 1723 1726 1774 1793 1799 1779 1792 1781 1769 1731 1577 1600 1650 1604 1561 1268 1009 850 684 561 489 620 710 1025 1383 1480 1458 1437 1404 1394 1368 1335 1284 1278 1257 1245 1223 1185 1164 1161 1137 1114 1070 1070 1034 1001 1004 942 839 808 801 812 838 820 818 781 786 751 741 748 729 713 695 682 649 564 543 517 469 443 408 374 335 342 317 293 268 162 146 140 201 196 164 155 146 142 134 129 101 94 86 86 77 73 67 62 61 53 49 43 40 33 33 25 24 17 16 7 0 0 0 0 0 0 0 0 0 0 0 0 0 0 0 0 0 0 0 0 0 0 0 0 0 0 0 0 0 0 0 0 0 0 0 0 0 0 0 0 0 0 0 0 0 0 0 0 0 0 0 0 0 0 0 0 0 0 0 0 0
0 0 0 0 0 0 0 0 0 0 0 0 0 0 0 0 0 0 0 0 0 0 0 0 0 0 0 0 0 0 3 4 5 6 8 9 14 24 34 43 50 60 32 75 119 139 168 184 212 235 266 280 298 318 379 437 483 528 610 654 709 689 453 327 184 194 495 703 806 944 962 978 1036 1059 1068 1074 1073 1093 1149 1308 1372 1366 1398 1242 1174 1228 1270 1448 1560 1567 1596 1640 1669 1657 1669 1698 1744 1792 1792 1835 1849 1828 1832 1824 1825 1811 1724 1731 1718 1657 1607 1261 1033 864 726 677 520 525 775 1070 1409 1506 1489 1454 1433 1416 1400 1364 1336 1309 1277 1273 1239 1213 1202 1168 1134 1103 1092 1078 1062 1031 1035 919 831 818 807 809 851 862 838 833 819 797 789 768 744 743 726 697 649 598 555 514 481 420 400 371 356 327 294 240 152 153 149 189 227 218 193 173 148 142 130 122 116 112 90 81 77 73 69 62 57 53 59 50 42 39 33 31 24 18 15 6 0 0 0 0 0 0 0 0 0 0 0 0 0 0 0 0 0 0 0 0 0 0 0 0 0 0 0 0 0 0 0 0 0 0 0 0 0 0 0 0 0 0 0 0 0 0 0 0 0 0 0 0 0 0 0 0 0 0 0 0 0
0 0 0 0 0 0 0 0 0 0 0 0 0 0 0 0 0 0 0 0 0 0 0 0 0 0 0 0 0 0 3 4 4 6 7 9 10 18 27 37 45 54 28 87 126 171 201 220 229 257 284 302 335 297 385 457 501 549 653 712 744 769 690 579 346 190 194 349 600 913 992 1018 1032 1092 1099 1122 1160 1174 1315 1190 1103 1112 1117 911 904 910 1029 1223 1407 1568 1619 1658 1698 1710 1712 1739 1788 1829 1841 1861 1877 1882 1895 1861 1850 1822 1800 1790 1750 1685 1637 1361 966 855 720 734 662 556 818 1150 1491 1523 1516 1482 1461 1447 1432 1400 1370 1329 1313 1281 1262 1238 1221 1190 1141 1143 1124 1099 1065 1065 1068 957 884 886 899 888 885 886 882 876 861 832 807 795 781 718 688 648 600 571 530 552 498 443 406 380 289 181 165 166 164 144 243 249 241 232 202 174 144 113 123 117 112 107 103 96 76 68 63 69 64 64 57 52 46 40 35 31 24 17 11 8 0 0 0 0 0 0 0 0 0 0 0 0 0 0 0 0 0 0 0 0 0 0 0 0 0 0 0 0 0 0 0 0 0 0 0 0 0 0 0 0 0 0 0 0 0 0 0 0 0 0 0 0 0 0 0 0 0 0 0 0 0
0 0 0 0 0 0 0 0 0 0 0 0 0 0 0 0 0 0 0 0 0 0 0 0 0 0 0 0 0 0 2 3 4 6 7 8 9 13 21 29 38 46 58 106 153 198 218 249 271 292 319 349 361 380 289 406 520 618 674 742 787 789 858 776 552 319 208 196 475 781 953 1076 1113 1130 1160 1244 1195 1063 1068 960 877 796 792 731 719 742 819 981 1214 1362 1464 1546 1617 1702 1757 1773 1796 1842 1872 1883 1934 1918 1920 1884 1888 1871 1825 1830 1790 1751 1534 1273 975 803 723 644 581 710 940 1248 1567 1554 1539 1528 1510 1463 1467 1442 1400 1365 1339 1306 1291 1250 1228 1192 1191 1178 1140 1109 1118 1123 1101 1067 1069 991 958 934 940 928 927 918 911 871 844 803 778 764 756 730 691 648 600 539 476 420 363 339 174 167 160 153 149 207 265 259 290 250 223 196 154 142 107 114 109 104 99 96 90 85 80 76 70 64 58 52 46 41 35 30 24 18 12 5 0 0 0 0 0 0 0 0 0 0 0 0 0 0 0 0 0 0 0 0 0 0 0 0 0 0 0 0 0 0 0 0 0 0 0 0 0 0 0 0 0 0 0 0 0 0 0 0 0 0 0 0 0 0 0 0 0 0 0 0 0
0 0 0 0 0 0 0 0 0 0 0 0 0 0 0 0 0 0 0 0 0 0 0 0 0 0 0 0 0 1 2 3 4 5 7 5 8 9 13 23 28 35 17 83 172 218 252 259 292 325 347 366 400 425 442 350 517 598 672 728 795 831 902 942 786 518 249 207 287 536 795 985 869 944 1215 1141 1006 987 896 684 432 393 488 506 498 561 676 806 970 1092 1219 1307 1498 1569 1614 1746 1812 1729 1804 1911 1936 1959 1932 1920 1910 1894 1875 1820 1747 1563 1333 1024 773 699 655 702 827 912 1052 1385 1605 1601 1572 1566 1537 1522 1499 1465 1436 1396 1350 1314 1300 1241 1254 1236 1215 1190 1137 1195 1187 1168 1111 1127 1101 1030 1032 970 970 974 955 951 887 803 841 814 822 812 793 758 701 637 545 460 410 379 351 213 178 176 251 197 165 250 286 309 322 261 239 191 181 121 105 93 102 100 95 91 87 80 75 69 65 59 56 51 44 37 32 26 22 16 12 5 0 0 0 0 0 0 0 0 0 0 0 0 0 0 0 0 0 0 0 0 0 0 0 0 0 0 0 0 0 0 0 0 0 0 0 0 0 0 0 0 0 0 0 0 0 0 0 0 0 0 0 0 0 0 0 0 0 0 0 0 0
0 0 0 0 0 0 0 0 0 0 0 0 0 0 0 0 0 0 0 0 0 0 0 0 0 0 0 0 0 1 3 2 3 3 3 6 8 7 9 8 10 10 20 139 209 235 281 308 319 326 366 407 433 463 501 517 469 548 630 723 812 876 916 980 938 649 328 225 224 499 662 687 584 618 967 988 932 849 513 385 325 413 383 386 474 446 512 605 772 921 1018 1128 1322 1363 1477 1575 1699 1827 1904 1920 1942 1961 1965 1946 1933 1916 1765 1671 1478 1397 1216 939 698 875 830 985 1166 1197 1254 1435 1641 1613 1598 1582 1566 1535 1519 1473 1461 1406 1366 1327 1306 1273 1262 1250 1238 1204 1247 1250 1221 1166 1153 1102 1113 1074 1041 1014 993 1006 966 816 599 472 532 590 731 624 564 665 679 557 480 426 393 372 360 203 187 209 309 298 226 301 314 333 316 258 248 217 181 135 109 99 91 95 91 82 78 77 72 65 61 56 53 45 41 35 30 25 20 14 9 5 0 0 0 0 0 0 0 0 0 0 0 0 0 0 0 0 0 0 0 0 0 0 0 0 0 0 0 0 0 0 0 0 0 0 0 0 0 0 0 0 0 0 0 0 0 0 0 0 0 0 0 0 0 0 0 0 0 0 0 0 0
0 0 0 0 0 0 0 0 0 0 0 0 0 0 0 0 0 0 0 0 0 0 0 0 0 0 0 0 0 2 2 2 3 3 4 4 3 5 6 7 9 11 16 54 143 269 301 351 353 370 387 419 472 514 541 569 543 622 656 756 789 837 898 955 989 633 381 312 219 242 294 435 410 466 560 776 545 426 416 306 488 584 608 486 614 561 484 743 971 990 1060 953 1014 1135 1360 1475 1618 1863 1920 1945 1956 1978 1980 1981 1961 1938 1662 1438 1225 904 874 775 956 955 937 1103 1313 1483 1561 1673 1653 1642 1623 1605 1589 1568 1534 1497 1464 1412 1373 1359 1323 1316 1296 1286 1272 1228 1294 1299 1231 1161 1090 1088 1092 1082 1060 1067 1041 994 682 605 480 358 318 332 561 625 642 438 570 493 458 418 404 254 204 190 202 336 313 247 300 353 343 353 309 281 259 228 156 132 122 103 109 97 94 88 75 69 64 62 57 52 47 40 35 32 27 22 17 13 8 4 0 0 0 0 0 0 0 0 0 0 0 0 0 0 0 0 0 0 0 0 0 0 0 0 0 0 0 0 0 0 0 0 0 0 0 0 0 0 0 0 0 0 0 0 0 0 0 0 0 0 0 0 0 0 0 0 0 0 0 0 0
0 0 0 0 0 0 0 0 0 0 0 0 0 0 0 0 0 0 0 0 0 0 0 0 0 0 0 0 0 2 3 4 3 3 4 4 4 5 4 7 11 11 42 149 253 286 323 352 391 401 432 460 497 557 588 625 588 677 635 622 835 899 964 1014 1092 845 484 374 236 223 231 259 241 302 385 378 303 273 316 354 484 645 689 660 764 600 457 559 681 776 895 1051 1191 1292 1427 1562 1667 1775 1874 1973 1993 1994 2007 2007 1979 1912 1595 1292 1111 1250 1228 996 936 1015 1026 1239 1458 1698 1711 1698 1691 1671 1649 1641 1629 1583 1562 1511 1483 1442 1420 1381 1356 1351 1333 1312 1299 1316 1354 1315 1207 1135 1099 1099 1115 1107 1088 1070 949 824 581 390 343 256 258 234 354 304 304 476 383 477 468 332 233 188 199 338 344 335 281 358 397 388 372 355 337 308 268 196 203 190 142 147 96 77 77 79 74 67 63 55 53 49 43 37 32 28 24 20 16 12 8 4 0 0 0 0 0 0 0 0 0 0 0 0 0 0 0 0 0 0 0 0 0 0 0 0 0 0 0 0 0 0 0 0 0 0 0 0 0 0 0 0 0 0 0 0 0 0 0 0 0 0 0 0 0 0 0 0 0 0 0 0 0
0 0 0 0 0 0 0 0 0 0 0 0 0 0 0 0 0 0 0 0 0 0 0 0 0 0 0 0 1 2 3 4 4 2 4 4 6 4 9 20 41 36 65 221 267 320 358 360 422 459 478 514 560 583 623 657 688 676 795 786 783 926 965 1015 1079 1049 684 495 431 295 233 259 266 240 258 263 316 414 423 342 463 508 632 759 957 690 554 462 523 592 726 769 879 1010 1159 1334 1450 1551 1635 1819 2008 2024 2034 2032 2009 1786 1379 1342 1353 1343 1231 1120 1079 1101 1111 1458 1632 1755 1740 1725 1690 1599 1535 1485 1471 1601 1586 1547 1513 1462 1448 1417 1389 1375 1353 1336 1353 1363 1383 1310 1258 1191 1121 1119 1116 1107 1072 817 713 537 451 321 259 348 593 284 228 246 242 214 209 223 212 199 213 210 397 349 354 323 366 451 434 404 372 371 361 314 258 177 218 203 172 113 89 95 100 67 56 59 62 55 40 37 34 28 30 25 21 17 14 9 6 4 0 0 0 0 0 0 0 0 0 0 0 0 0 0 0 0 0 0 0 0 0 0 0 0 0 0 0 0 0 0 0 0 0 0 0 0 0 0 0 0 0 0 0 0 0 0 0 0 0 0 0 0 0 0 0 0 0 0 0 0 0
0 0 0 0 0 0 0 0 0 0 0 0 0 0 0 0 0 0 0 0 0 0 0 0 0 0 0 0 3 3 4 5 6 7 3 4 6 9 17 63 82 83 168 272 308 339 384 419 452 483 516 542 587 623 653 698 730 783 823 877 909 858 995 1042 1048 1100 897 752 611 527 451 393 322 369 273 261 335 401 487 459 437 389 442 646 867 868 685 594 594 500 555 599 665 768 893 1004 1093 1278 1409 1624 1828 2050 2067 2076 2055 1730 1743 1672 1388 1382 1140 1168 1107 1127 1305 1513 1791 1764 1694 1506 1372 1286 1249 1198 1167 1331 1523 1576 1548 1505 1477 1459 1419 1397 1376 1375 1413 1421 1395 1316 1285 1156 1150 1148 1079 969 740 591 488 339 289 291 363 525 729 432 460 285 273 251 266 413 228 220 218 414 420 357 315 398 479 467 445 410 419 389 367 315 207 219 254 207 126 126 96 134 129 69 99 87 58 50 43 34 34 29 20 23 16 15 10 8 5 5 0 0 0 0 0 0 0 0 0 0 0 0 0 0 0 0 0 0 0 0 0 0 0 0 0 0 0 0 0 0 0 0 0 0 0 0 0 0 0 0 0 0 0 0 0 0 0 0 0 0 0 0 0 0 0 0 0 0 0 0 0
0 0 0 0 0 0 0 0 0 0 0 0 0 0 0 0 0 0 0 0 0 0 0 0 0 0 0 2 4 4 5 6 3 3 5 6 7 7 39 82 143 161 213 319 333 377 413 461 452 503 543 567 599 657 692 727 785 814 863 899 935 958 936 1056 1106 1124 1172 986 867 783 714 445 489 486 393 255 258 256 534 694 728 637 445 530 699 848 1000 874 808 615 587 560 589 628 708 727 903 1057 1214 1451 1695 1964 2097 2102 2083 2041 1975 1677 1552 1512 1270 1216 1212 1366 1577 1628 1592 1452 1421 1327 1188 1097 1034 1001 1000 1104 1351 1593 1565 1536 1532 1493 1447 1368 1293 1210 1244 1222 1247 1273 1236 1138 1146 1141 920 729 498 382 281 335 385 652 679 577 296 269 484 863 778 611 577 594 561 318 370 461 381 432 408 493 518 487 447 443 382 410 381 315 266 280 249 171 194 177 124 172 100 80 146 132 105 80 53 39 38 32 29 21 11 11 6 9 9 6 1 0 0 0 0 0 0 0 0 0 0 0 0 0 0 0 0 0 0 0 0 0 0 0 0 0 0 0 0 0 0 0 0 0 0 0 0 0 0 0 0 0 0 0 0 0 0 0 0 0 0 0 0 0 0 0 0 0 0 0 0
0 0 0 0 0 0 0 0 0 0 0 0 0 0 0 0 0 0 0 0 0 0 0 0 0 0 2 3 4 5 5 8 9 7 7 7 9 9 60 155 195 276 323 364 382 414 439 460 505 528 569 622 627 691 733 784 824 860 898 921 971 1008 1048 1012 1123 1150 1201 1206 1026 858 755 668 875 723 579 415 482 274 283 489 792 938 741 487 536 626 775 965 1153 943 909 781 733 725 740 628 689 844 1115 1319 1586 1803 2076 2146 2136 2118 2026 1791 1740 1424 1568 1548 1509 1408 1303 1220 1269 1164 1157 1139 1079 1113 982 973 964 953 1202 1485 1597 1499 1349 1197 1144 1049 990 808 784 832 923 981 952 693 744 869 753 619 312 335 381 546 709 593 431 359 406 565 831 916 807 666 751 710 745 529 454 410 487 359 331 415 524 500 477 417 475 424 382 347 313 236 237 270 230 216 139 113 117 146 155 139 90 72 53 42 40 23 11 14 17 16 19 22 12 7 1 0 0 0 0 0 0 0 0 0 0 0 0 0 0 0 0 0 0 0 0 0 0 0 0 0 0 0 0 0 0 0 0 0 0 0 0 0 0 0 0 0 0 0 0 0 0 0 0 0 0 0 0 0 0 0 0 0 0 0 0
0 0 0 0 0 0 0 0 0 0 0 0 0 0 0 0 0 0 0 0 0 0 0 0 0 2 3 5 6 6 6 7 9 10 19 14 54 114 209 258 284 326 361 399 425 452 460 489 542 572 613 621 691 724 750 798 841 896 936 971 1009 1032 1086 1120 1099 1197 1221 1240 1288 1115 892 862 1161 991 850 826 489 333 309 277 502 897 1059 867 587 568 586 705 1074 1289 1230 938 1021 1033 886 728 713 948 1028 1258 1499 1747 2013 2179 2179 2149 2130 1922 1649 1619 1495 1290 1221 1178 1186 1181 1108 1124 998 1031 1037 1001 963 902 883 858 1078 1382 1391 1212 1044 908 820 725 657 646 691 642 644 617 661 539 607 651 511 399 351 526 588 754 505 528 445 566 775 968 1028 921 767 832 763 818 572 469 500 462 478 392 475 483 546 525 483 505 493 462 412 403 359 325 321 212 211 179 165 141 136 185 155 134 84 58 58 54 29 26 60 58 31 25 29 26 18 11 4 0 0 0 0 0 0 0 0 0 0 0 0 0 0 0 0 0 0 0 0 0 0 0 0 0 0 0 0 0 0 0 0 0 0 0 0 0 0 0 0 0 0 0 0 0 0 0 0 0 0 0 0 0 0 0 0 0 0 0 0
0 0 0 0 0 0 0 0 0 0 0 0 0 0 0 0 0 0 0 0 0 0 0 0 3 5 6 7 7 8 9 8 28 53 52 124 222 238 276 310 335 363 399 426 440 494 509 542 575 608 651 692 699 764 795 824 869 929 969 1007 1042 1084 1123 1150 1184 1210 1251 1289 1307 1339 1214 1217 1322 1208 1247 992 749 561 429 280 507 801 1080 1105 898 666 622 623 828 980 1225 1415 1459 1335 1082 740 715 922 1056 1248 1420 1702 1953 2185 2225 2206 2104 1860 1498 1256 1255 1256 1215 1163 1137 1115 1107 1087 979 925 916 886 928 914 897 780 976 1224 1137 910 727 635 558 534 516 439 496 523 496 468 444 450 475 500 403 306 540 701 803 627 350 655 849 833 1017 1015 967 956 919 936 916 754 495 583 528 566 499 545 452 451 567 524 535 550 530 489 411 415 337 361 313 284 222 200 184 201 220 182 190 121 106 111 70 16 21 56 73 66 47 43 39 30 20 25 5 0 0 0 0 0 0 0 0 0 0 0 0 0 0 0 0 0 0 0 0 0 0 0 0 0 0 0 0 0 0 0 0 0 0 0 0 0 0 0 0 0 0 0 0 0 0 0 0 0 0 0 0 0 0 0 0 0 0 0 0
0 0 0 0 0 0 0 0 0 0 0 0 0 0 0 0 0 0 0 0 0 0 1 4 6 7 8 10 13 19 20 37 15 143 164 165 248 291 327 346 371 408 437 472 516 543 569 586 615 611 689 719 770 794 832 861 902 949 993 1032 1069 1120 1156 1186 1203 1242 1263 1309 1340 1365 1413 1446 1427 1426 1451 1135 916 747 674 287 427 670 943 1249 1029 791 706 736 705 786 955 1133 1355 1587 1220 887 795 779 1009 1219 1382 1668 1939 2139 2264 2231 1971 1681 1457 1159 1100 1109 1161 1142 1122 1110 1109 1118 1089 981 928 815 794 812 799 723 828 844 1038 729 649 472 572 591 587 597 600 528 418 399 411 435 327 407 410 538 789 726 727 459 753 844 1041 1050 1025 1022 966 1040 1090 943 765 664 685 573 621 616 560 530 399 601 592 522 595 577 547 488 434 393 403 360 338 309 296 246 222 267 218 230 191 172 143 108 80 17 38 78 82 71 55 55 44 51 35 39 31 0 0 0 0 0 0 0 0 0 0 0 0 0 0 0 0 0 0 0 0 0 0 0 0 0 0 0 0 0 0 0 0 0 0 0 0 0 0 0 0 0 0 0 0 0 0 0 0 0 0 0 0 0 0 0 0 0 0 0 0
0 0 0 0 0 0 0 0 0 0 0 0 0 0 0 0 0 0 0 0 0 4 8 8 8 9 10 19 44 82 66 143 181 47 245 256 267 320 358 382 405 440 467 496 548 578 599 625 655 688 725 760 787 804 864 902 903 960 1011 1064 1098 1146 1185 1213 1244 1260 1286 1311 1354 1404 1418 1483 1518 1533 1501 1243 993 816 824 600 288 470 715 1044 1214 1106 914 810 810 920 955 970 1165 1443 1476 981 903 786 947 1078 1338 1598 1839 1985 2185 1969 1810 1670 1314 1148 1057 1035 988 1022 1125 1056 1105 1092 1088 973 908 882 811 703 685 557 645 696 818 658 485 641 650 695 640 668 666 554 483 461 466 402 434 448 659 735 517 508 440 543 882 1093 1057 1049 1016 1005 997 1147 1141 993 862 779 637 720 716 574 517 453 581 616 598 604 626 611 550 534 490 396 401 360 351 344 314 252 293 293 244 251 219 209 158 31 45 46 63 92 94 80 73 62 65 58 56 38 36 18 0 0 0 0 0 0 0 0 0 0 0 0 0 0 0 0 0 0 0 0 0 0 0 0 0 0 0 0 0 0 0 0 0 0 0 0 0 0 0 0 0 0 0 0 0 0 0 0 0 0 0 0 0 0 0 0 0 0 0
0 0 0 0 0 0 0 0 0 0 0 0 0 0 0 0 0 0 0 40 25 9 87 90 107 115 48 80 114 133 154 195 219 106 250 290 308 355 395 409 420 463 487 522 558 572 642 672 683 712 745 786 820 861 900 916 947 966 1021 1079 1120 1168 1198 1249 1297 1303 1321 1320 1387 1409 1465 1511 1546 1578 1588 1305 939 882 873 525 327 432 573 817 1144 1375 1089 890 941 924 884 868 958 1192 1389 1174 997 918 912 1160 1268 1458 1607 1858 2104 1784 1510 1433 1282 1093 1043 986 949 995 991 996 1005 1025 997 972 957 909 705 610 584 689 623 579 626 509 659 715 743 692 708 663 673 601 505 483 424 375 452 570 809 528 423 477 718 864 1132 1095 1072 1047 1018 1023 1097 1305 1233 1093 961 863 882 887 670 723 476 640 575 620 616 666 636 595 552 511 462 462 412 407 402 393 316 324 328 286 280 257 251 199 139 52 116 103 87 114 111 101 68 78 76 64 59 49 39 18 0 0 0 0 0 0 0 0 0 0 0 0 0 0 0 0 0 0 0 0 0 0 0 0 0 0 0 0 0 0 0 0 0 0 0 0 0 0 0 0 0 0 0 0 0 0 0 0 0 0 0 0 0 0 0 0 0 0 0
0 0 0 0 0 0 0 0 0 0 4 12 9 0 0 0 0 9 44 62 97 95 110 117 133 143 155 153 174 204 221 251 283 300 259 343 335 368 398 437 456 481 512 546 597 627 660 655 732 751 772 815 862 897 917 945 966 998 1040 1084 1152 1180 1232 1276 1320 1332 1358 1382 1404 1447 1502 1539 1561 1597 1610 1376 1178 1161 762 534 377 389 471 636 1008 1324 1002 950 931 912 867 775 798 905 1168 1510 1335 1092 948 1066 1264 1331 1499 1762 1867 1553 1314 1202 1152 1038 972 930 906 867 779 833 902 972 896 859 829 780 672 616 752 742 733 673 554 656 788 739 709 648 580 589 583 604 591 481 381 433 557 705 945 650 544 725 936 1130 1216 1170 1143 1101 1079 1140 1219 1157 1127 1093 1095 1114 975 923 767 652 591 671 662 629 667 688 642 620 543 527 517 451 456 455 394 368 378 363 341 302 259 262 242 167 122 32 109 133 125 125 126 110 102 88 83 76 65 53 30 12 0 0 0 0 0 0 0 0 0 0 0 0 0 0 0 0 0 0 0 0 0 0 0 0 0 0 0 0 0 0 0 0 0 0 0 0 0 0 0 0 0 0 0 0 0 0 0 0 0 0 0 0 0 0 0 0 0 0 0
0 0 0 0 0 0 0 0 0 0 11 63 35 69 82 95 97 84 75 91 123 117 120 141 161 174 190 126 213 242 261 296 314 341 339 367 387 395 453 456 498 494 542 556 592 643 700 731 761 800 836 844 885 924 954 982 996 1020 1048 1106 1158 1201 1235 1280 1328 1365 1388 1421 1442 1490 1533 1555 1586 1620 1648 1574 1355 1065 746 554 368 357 503 565 736 1038 1169 1000 946 863 778 804 902 919 962 1084 1339 1636 1293 1153 1155 1159 1365 1538 1618 1457 1256 1119 1065 1043 1042 1036 949 947 902 795 879 869 824 760 735 638 647 823 855 808 779 769 743 860 775 784 685 612 580 557 522 490 450 412 430 578 738 947 961 490 738 951 1158 1260 1243 1268 1192 1143 1102 1090 1033 948 912 885 906 1012 1077 1013 719 640 680 669 679 711 687 675 653 613 606 564 507 508 508 439 390 400 381 367 343 301 258 258 206 139 117 88 107 153 144 133 124 125 107 99 90 82 60 54 34 6 3 0 0 0 0 0 0 0 0 0 0 0 0 0 0 0 0 0 0 0 0 0 0 0 0 0 0 0 0 0 0 0 0 0 0 0 0 0 0 0 0 0 0 0 0 0 0 0 0 0 0 0 0 0 0 0 0 0 0
0 0 0 0 0 0 0 0 1 101 33 69 80 72 85 116 118 107 83 129 136 141 134 158 176 198 212 216 238 270 296 324 346 376 394 399 431 465 469 508 517 539 578 600 638 674 713 773 776 830 869 888 918 947 964 1006 1026 1021 1052 1146 1176 1215 1238 1293 1338 1388 1426 1443 1477 1506 1557 1583 1611 1641 1676 1402 1162 888 616 424 354 409 393 499 578 702 855 927 923 813 773 834 945 1063 987 991 1232 1311 1626 1495 1493 1512 1486 1373 1413 1381 1156 1102 1117 1108 1074 1052 1020 965 902 773 709 822 762 613 717 723 775 851 886 865 870 858 815 716 675 640 602 553 514 482 509 438 426 429 559 684 903 1131 901 627 954 1206 1313 1280 1250 1150 1141 1124 1097 1066 1031 977 953 920 872 841 883 818 719 702 697 696 693 735 722 714 690 686 645 580 564 567 501 438 427 401 381 344 347 312 285 265 224 175 140 127 85 165 133 154 139 114 112 95 86 78 77 48 28 16 10 0 0 0 0 0 0 0 0 0 0 0 0 0 0 0 0 0 0 0 0 0 0 0 0 0 0 0 0 0 0 0 0 0 0 0 0 0 0 0 0 0 0 0 0 0 0 0 0 0 0 0 0 0 0 0 0 0 0
0 0 0 0 0 0 0 0 9 91 41 111 118 125 104 99 122 158 110 132 151 158 154 177 211 239 242 246 259 289 315 348 378 413 422 409 445 491 521 514 557 576 615 637 666 702 748 778 836 864 882 930 955 987 982 1032 1053 1093 1111 1105 1202 1242 1281 1327 1363 1401 1431 1478 1501 1547 1588 1631 1640 1680 1566 1236 967 656 358 354 539 556 469 378 389 476 672 898 797 762 804 860 1046 1101 1118 1011 1055 1323 1443 1758 1808 1808 1723 1756 1680 1339 1152 1174 1151 1164 1092 1092 1079 1010 928 796 673 650 621 682 766 827 874 883 870 857 856 743 706 706 659 629 602 644 647 615 518 441 509 592 658 804 1110 1098 855 629 1069 1391 1339 1298 1232 1189 1133 1119 1069 1015 1013 989 954 905 880 853 792 722 697 720 685 738 773 791 759 727 693 684 646 587 580 541 496 448 428 424 377 348 321 319 288 262 197 163 142 182 81 177 173 141 142 135 114 113 106 95 80 53 30 36 24 25 7 3 0 0 0 0 0 0 0 0 0 0 0 0 0 0 0 0 0 0 0 0 0 0 0 0 0 0 0 0 0 0 0 0 0 0 0 0 0 0 0 0 0 0 0 0 0 0 0 0 0 0 0 0 0 0 0
0 0 0 0 0 0 0 12 24 85 60 61 94 113 132 142 149 171 169 124 159 186 179 204 242 260 260 273 246 320 340 389 408 433 452 444 484 509 536 563 560 618 630 671 702 735 767 820 851 892 920 951 980 1015 1015 1063 1113 1146 1176 1188 1202 1268 1302 1343 1390 1420 1462 1508 1543 1565 1618 1657 1683 1703 1492 1216 888 560 449 417 572 846 763 587 539 531 619 874 563 580 794 859 890 954 1101 1094 987 1164 1423 1640 1914 2128 2045 1676 1350 1228 1224 1241 1165 1173 1133 1107 1086 1019 897 846 726 668 682 747 778 873 923 876 871 826 809 782 720 749 656 644 615 643 663 641 485 438 541 687 783 1005 1286 1019 776 770 1261 1404 1362 1293 1206 1232 1165 1130 1071 1049 1002 947 904 911 874 845 836 792 761 741 739 772 851 825 771 717 676 649 617 610 565 366 417 474 399 346 323 309 288 264 250 237 237 220 201 101 182 185 168 187 158 142 120 116 103 95 84 40 43 37 33 29 22 7 1 1 0 0 0 0 0 0 0 0 0 0 0 0 0 0 0 0 0 0 0 0 0 0 0 0 0 0 0 0 0 0 0 0 0 0 0 0 0 0 0 0 0 0 0 0 0 0 0 0 0 0 0 0 0
0 0 0 0 0 0 2 7 28 44 83 81 107 94 144 110 129 159 183 193 172 181 201 212 238 268 295 309 272 349 367 408 434 450 481 500 523 543 551 586 618 642 675 698 735 765 796 851 888 907 936 958 1008 1042 1061 1091 1130 1165 1213 1232 1246 1287 1337 1369 1408 1449 1480 1515 1566 1603 1643 1703 1716 1728 1565 1176 777 581 522 343 472 643 854 617 581 534 524 733 517 713 865 894 968 1153 1262 1296 1036 1160 1299 1497 1746 2042 1920 1610 1334 1265 1256 1255 1200 1179 1173 1116 1085 1011 954 874 795 717 652 753 842 956 920 889 865 815 798 838 765 750 683 668 638 667 658 605 481 460 575 757 984 1251 1214 935 603 897 1241 1423 1377 1375 1301 1246 1211 1169 1109 1069 1013 983 952 915 872 834 809 794 763 741 771 848 842 804 762 732 681 670 631 488 438 367 306 322 234 244 288 248 202 186 188 183 158 149 176 198 195 205 197 190 170 142 126 115 111 82 69 59 45 46 42 30 19 8 6 6 0 0 0 0 0 0 0 0 0 0 0 0 0 0 0 0 0 0 0 0 0 0 0 0 0 0 0 0 0 0 0 0 0 0 0 0 0 0 0 0 0 0 0 0 0 0 0 0 0 0 0 0 0
0 0 0 0 0 9 40 44 25 38 62 107 119 127 104 126 122 139 208 188 230 211 218 244 272 300 305 336 355 340 395 430 454 483 503 535 549 577 585 609 633 651 690 713 741 807 836 873 908 957 950 988 1012 1059 1097 1132 1157 1195 1230 1258 1281 1289 1370 1401 1433 1480 1512 1552 1592 1638 1675 1728 1759 1482 1276 1179 853 567 631 486 428 522 735 612 643 587 467 510 601 801 783 887 943 1025 1139 1305 1231 1183 1312 1485 1655 1931 1887 1597 1377 1256 1259 1264 1225 1211 1162 1140 1102 1040 935 866 792 718 667 797 1012 1076 975 936 883 808 862 879 814 750 709 670 630 638 647 569 459 512 705 938 1178 1324 992 705 875 1125 1390 1460 1445 1384 1361 1281 1253 1190 1142 1093 1045 1012 966 916 897 873 805 795 786 793 861 863 837 771 743 711 648 546 575 457 378 313 332 332 319 307 275 295 280 262 237 227 184 188 220 218 215 207 198 192 149 134 112 115 104 91 81 63 60 55 43 32 21 12 10 10 6 0 0 0 0 0 0 0 0 0 0 0 0 0 0 0 0 0 0 0 0 0 0 0 0 0 0 0 0 0 0 0 0 0 0 0 0 0 0 0 0 0 0 0 0 0 0 0 0 0 0 0 0
0 0 0 0 1 38 24 69 53 44 56 79 95 128 143 120 134 179 232 233 238 255 239 258 291 319 331 362 379 372 396 437 466 490 533 561 585 601 620 632 673 686 705 723 764 803 849 905 923 956 998 1018 1054 1075 1123 1158 1179 1209 1238 1276 1315 1339 1387 1440 1463 1509 1567 1596 1627 1674 1701 1748 1644 1313 1172 1067 945 734 670 614 435 495 713 745 781 694 655 653 616 831 890 903 967 1013 1115 1257 1280 1119 1266 1414 1599 1874 1811 1545 1344 1267 1281 1285 1218 1212 1169 1102 1070 1030 951 894 791 714 698 811 934 1085 1002 1084 932 837 867 873 840 759 713 642 660 684 669 566 475 634 831 1086 1260 1126 993 690 923 1197 1530 1524 1490 1457 1398 1339 1300 1240 1148 1137 1101 1043 952 918 892 858 880 905 886 910 930 783 671 648 636 496 473 458 426 417 336 361 378 370 358 354 390 372 335 303 171 270 255 238 230 133 171 158 169 161 135 134 126 104 100 90 90 82 71 58 42 30 22 10 15 15 12 2 0 0 0 0 0 0 0 0 0 0 0 0 0 0 0 0 0 0 0 0 0 0 0 0 0 0 0 0 0 0 0 0 0 0 0 0 0 0 0 0 0 0 0 0 0 0 0 0 0 0 0
0 0 0 1 15 25 40 53 81 117 90 94 77 113 146 161 188 217 234 253 259 260 248 269 305 331 345 369 396 393 410 452 483 507 534 574 602 624 647 658 689 705 731 744 785 821 872 901 927 961 1004 1030 1078 1123 1147 1174 1202 1242 1281 1300 1338 1357 1413 1457 1506 1541 1587 1647 1676 1709 1753 1608 1412 1256 1206 1030 849 819 766 560 400 533 602 663 755 843 843 813 805 812 867 925 938 951 1036 1181 1368 1225 1252 1420 1515 1774 1803 1507 1305 1294 1302 1250 1188 1130 1096 1053 988 956 839 795 710 726 783 1080 993 1141 894 941 998 877 755 782 806 767 619 609 595 568 526 542 522 713 931 1221 1107 1132 1118 946 959 1104 1342 1552 1549 1504 1461 1412 1353 1279 1243 1200 1174 1036 970 933 907 917 1010 1002 975 796 704 625 534 476 406 403 357 378 381 361 348 371 414 490 469 458 438 406 325 206 264 283 258 186 78 88 70 65 64 59 59 54 52 49 41 100 90 79 69 60 48 34 27 12 20 19 15 9 0 0 0 0 0 0 0 0 0 0 0 0 0 0 0 0 0 0 0 0 0 0 0 0 0 0 0 0 0 0 0 0 0 0 0 0 0 0 0 0 0 0 0 0 0 0 0 0 0 0 0
0 0 0 6 16 26 34 63 79 103 129 142 94 136 189 171 195 224 238 247 259 278 300 271 317 343 359 376 399 419 415 446 481 514 545 581 611 644 660 683 708 709 744 778 806 842 874 895 953 985 1017 1047 1102 1128 1159 1191 1234 1246 1299 1336 1362 1392 1435 1477 1525 1568 1624 1672 1719 1741 1717 1432 1222 1108 952 884 922 998 826 626 445 533 687 692 738 818 954 870 903 827 903 954 996 1049 1062 1158 1327 1350 1237 1378 1562 1734 1646 1439 1337 1312 1270 1159 1120 1085 1017 924 854 773 783 825 792 812 888 1035 1328 1198 869 834 889 918 765 802 746 657 558 523 509 546 604 542 702 836 944 1329 1340 1376 1350 1295 1071 1143 1240 1363 1570 1551 1500 1469 1404 1360 1302 1274 1245 1104 975 978 972 1043 1030 965 781 691 634 586 534 487 454 462 434 420 394 384 395 431 501 536 501 456 382 311 206 296 300 306 279 82 245 235 169 109 178 160 158 80 49 46 42 37 39 80 69 56 43 32 19 17 24 19 14 9 3 0 0 0 0 0 0 0 0 0 0 0 0 0 0 0 0 0 0 0 0 0 0 0 0 0 0 0 0 0 0 0 0 0 0 0 0 0 0 0 0 0 0 0 0 0 0 0 0 0 0
0 0 0 2 35 42 42 51 65 91 113 104 143 159 192 187 212 225 245 260 267 286 299 315 328 343 375 390 411 438 445 450 488 514 526 559 601 624 668 697 722 732 763 767 826 857 882 932 963 983 1026 1065 1120 1155 1179 1213 1248 1275 1303 1338 1389 1420 1466 1510 1556 1611 1644 1697 1742 1784 1637 1320 1101 1071 1101 1017 984 897 926 694 435 557 753 789 783 832 849 983 901 835 930 994 1021 1087 1156 1202 1235 1481 1231 1381 1487 1646 1596 1349 1279 1260 1230 1186 1120 1073 987 1007 866 777 912 905 823 900 911 1175 1330 1300 897 682 744 790 680 745 600 551 537 546 580 682 670 595 735 903 1138 1363 1375 1402 1402 1404 1394 1377 1188 1375 1472 1584 1540 1502 1438 1399 1368 1337 1286 1134 1133 1044 1037 985 834 732 720 677 625 581 521 471 521 501 448 421 424 474 523 581 530 530 494 402 341 285 249 298 310 301 283 104 279 246 234 210 209 197 161 145 120 56 66 40 34 34 34 38 45 16 17 25 19 17 16 12 6 0 0 0 0 0 0 0 0 0 0 0 0 0 0 0 0 0 0 0 0 0 0 0 0 0 0 0 0 0 0 0 0 0 0 0 0 0 0 0 0 0 0 0 0 0 0 0 0 0 0
0 0 0 0 7 56 51 62 61 83 88 109 159 152 178 196 210 218 243 269 283 298 323 330 339 351 369 387 421 442 459 470 476 480 525 551 591 638 677 702 730 759 770 807 854 856 900 931 965 992 1044 1063 1094 1148 1198 1232 1268 1294 1343 1376 1410 1459 1507 1552 1592 1636 1676 1720 1768 1818 1660 1426 1305 1477 1206 995 877 1212 1036 689 438 609 810 848 849 851 892 1059 1015 944 855 981 1064 1109 1170 1352 1243 1446 1398 1361 1493 1566 1510 1304 1237 1218 1204 1103 1030 1005 1016 993 867 855 973 901 897 932 912 943 1089 1193 1021 686 600 584 596 558 563 607 652 670 613 676 692 628 801 1002 1256 1375 1391 1401 1413 1411 1404 1402 1397 1449 1648 1623 1564 1516 1482 1446 1392 1359 1319 1288 1219 1020 922 816 763 747 703 639 637 605 523 605 578 535 506 477 518 620 616 585 534 414 376 335 306 283 297 313 317 322 298 118 286 237 242 231 241 209 186 153 139 128 112 91 51 48 28 23 21 33 38 30 25 22 15 9 6 4 1 0 0 0 0 0 0 0 0 0 0 0 0 0 0 0 0 0 0 0 0 0 0 0 0 0 0 0 0 0 0 0 0 0 0 0 0 0 0 0 0 0 0 0 0 0 0 0 0
0 0 0 0 2 7 31 76 78 82 91 107 134 126 111 136 213 239 221 259 283 314 331 344 356 364 381 404 425 441 460 481 497 504 542 572 607 642 696 719 745 763 776 812 846 871 912 932 975 1000 1044 1082 1117 1142 1191 1223 1248 1302 1336 1370 1427 1463 1527 1571 1611 1643 1706 1747 1795 1830 1875 1720 1649 1331 1142 940 1083 1134 741 669 476 649 773 894 911 975 1005 1103 1186 1070 966 909 1034 1132 1177 1369 1229 1345 1493 1348 1416 1553 1491 1328 1194 1191 1143 1051 1047 1035 960 884 852 971 978 907 1011 897 887 849 825 889 768 658 803 773 642 656 703 706 715 687 664 703 693 695 813 1128 1399 1396 1395 1432 1426 1424 1412 1406 1396 1498 1717 1664 1599 1544 1503 1451 1426 1391 1349 1320 1247 1055 1038 912 827 827 778 711 660 559 675 753 727 737 704 680 674 693 673 556 545 417 357 310 284 309 349 356 324 314 289 231 317 261 300 256 271 222 183 162 145 128 112 82 64 72 67 49 47 39 45 38 35 26 14 9 6 5 3 1 0 0 0 0 0 0 0 0 0 0 0 0 0 0 0 0 0 0 0 0 0 0 0 0 0 0 0 0 0 0 0 0 0 0 0 0 0 0 0 0 0 0 0 0 0 0 0
0 0 0 0 0 13 50 82 111 109 91 88 41 118 158 176 221 242 260 271 277 298 332 355 373 380 390 411 441 446 459 489 520 536 572 563 624 655 694 736 760 785 810 834 863 892 923 957 989 1013 1039 1087 1130 1173 1211 1248 1273 1322 1365 1392 1432 1503 1555 1583 1630 1671 1735 1764 1811 1848 1897 1941 1674 1274 1082 1030 1074 1195 805 631 469 639 777 990 964 989 1278 1269 1326 1268 1059 946 999 1145 1211 1347 1481 1302 1386 1539 1492 1595 1516 1412 1216 1174 1175 1087 1068 1027 912 1003 895 1031 984 980 973 951 832 778 768 689 635 674 761 765 625 693 770 760 720 676 688 705 695 731 933 1248 1422 1429 1427 1446 1434 1440 1425 1406 1442 1673 1752 1693 1633 1580 1536 1494 1456 1415 1372 1346 1319 1302 1186 1048 941 900 782 709 607 551 563 817 854 878 833 819 774 541 470 440 437 380 354 305 363 358 424 348 339 321 136 307 315 290 279 278 266 234 192 156 141 116 62 69 87 87 74 59 50 57 49 43 47 34 21 10 8 5 3 0 0 0 0 0 0 0 0 0 0 0 0 0 0 0 0 0 0 0 0 0 0 0 0 0 0 0 0 0 0 0 0 0 0 0 0 0 0 0 0 0 0 0 0 0 0 0 0
0 0 0 0 0 10 9 15 23 34 29 47 112 138 162 181 213 245 266 283 299 299 328 349 372 397 406 423 440 484 493 513 527 565 582 631 637 668 714 741 768 795 805 836 875 895 933 962 1009 1037 1060 1097 1116 1172 1202 1221 1279 1320 1365 1429 1452 1503 1564 1598 1645 1689 1744 1777 1841 1856 1914 1958 1717 1394 1272 1062 1024 1097 788 587 534 555 717 773 973 1105 1249 1357 1386 1369 1192 1114 1052 1224 1366 1471 1500 1406 1490 1539 1586 1644 1570 1409 1256 1263 1175 1119 1097 1038 941 1059 951 1053 1030 1015 930 884 845 786 729 719 714 806 802 728 657 735 742 757 709 721 701 718 760 776 1062 1358 1389 1455 1442 1461 1448 1445 1421 1413 1438 1714 1780 1737 1675 1613 1574 1517 1472 1441 1402 1384 1339 1336 1225 1068 1034 878 865 715 652 557 555 741 928 996 908 757 531 486 431 401 370 353 294 379 432 454 373 368 350 106 313 354 315 301 289 219 252 231 180 145 139 82 79 99 98 98 85 74 73 66 59 56 50 40 27 16 10 6 3 0 0 0 0 0 0 0 0 0 0 0 0 0 0 0 0 0 0 0 0 0 0 0 0 0 0 0 0 0 0 0 0 0 0 0 0 0 0 0 0 0 0 0 0 0 0 0 0
0 0 0 0 0 0 3 4 8 17 10 46 61 151 156 176 190 227 277 303 315 321 343 326 365 391 408 424 432 478 501 532 569 586 612 638 688 713 725 725 784 819 843 859 863 895 943 979 1010 1048 1068 1092 1126 1178 1206 1232 1297 1343 1396 1427 1473 1518 1567 1615 1659 1710 1760 1806 1852 1880 1942 1962 1765 1557 1264 1064 1181 1046 757 738 589 510 548 658 902 1212 1485 1338 1349 1318 1312 1274 1225 1399 1450 1496 1645 1587 1566 1552 1695 1729 1599 1532 1400 1325 1245 1215 1123 1001 1081 1068 1035 1144 1106 1050 1054 973 883 841 769 670 711 830 882 766 679 758 789 748 759 741 797 782 834 991 1218 1423 1456 1489 1488 1476 1472 1425 1415 1416 1435 1668 1827 1769 1692 1637 1599 1546 1488 1464 1428 1411 1395 1373 1284 1066 990 1021 957 707 614 553 638 708 942 998 886 767 558 471 425 378 335 364 382 487 473 411 399 372 190 292 359 316 299 275 288 263 243 217 142 144 100 91 111 110 111 104 92 82 83 75 69 66 55 43 33 24 21 9 4 0 0 0 0 0 0 0 0 0 0 0 0 0 0 0 0 0 0 0 0 0 0 0 0 0 0 0 0 0 0 0 0 0 0 0 0 0 0 0 0 0 0 0 0 0 0 0 0
0 0 0 0 0 0 0 13 22 32 54 77 120 139 151 163 181 242 295 317 342 346 359 383 386 396 402 428 449 467 467 505 536 574 613 638 670 715 747 768 808 831 827 867 892 897 929 967 1001 1042 1084 1105 1150 1173 1225 1260 1309 1356 1398 1440 1489 1532 1582 1635 1680 1729 1775 1817 1867 1899 1953 1990 1946 1648 1301 1176 1168 1296 853 819 681 669 550 607 774 1027 1401 1480 1419 1401 1319 1300 1365 1422 1512 1586 1685 1757 1591 1630 1708 1769 1728 1571 1540 1487 1322 1183 1075 1051 1065 1054 1087 1214 1302 1145 994 929 792 808 710 759 838 941 920 844 714 778 798 789 770 831 806 815 1008 1235 1435 1479 1481 1508 1505 1486 1442 1420 1432 1418 1443 1621 1858 1812 1738 1694 1636 1578 1533 1502 1472 1449 1422 1372 1299 1222 1173 1083 813 679 586 671 722 733 977 1050 865 691 543 466 420 510 501 477 536 510 482 418 220 119 277 413 396 336 336 332 290 254 236 188 178 166 183 123 124 124 121 114 98 95 88 89 80 71 60 47 42 32 28 18 8 0 0 0 0 0 0 0 0 0 0 0 0 0 0 0 0 0 0 0 0 0 0 0 0 0 0 0 0 0 0 0 0 0 0 0 0 0 0 0 0 0 0 0 0 0 0 0 0
0 0 0 0 0 0 9 33 44 39 69 101 128 146 169 181 204 229 265 335 350 361 375 390 402 382 424 433 440 466 492 524 544 578 616 649 681 707 744 773 821 849 859 882 887 917 933 981 984 1017 1071 1109 1148 1189 1242 1271 1325 1376 1409 1454 1484 1560 1603 1643 1694 1745 1776 1820 1871 1927 1960 2002 1836 1564 1199 1318 1334 1341 1047 855 797 790 691 648 612 838 1014 1250 1429 1527 1586 1525 1468 1483 1554 1704 2032 1919 1770 1727 1753 1823 1702 1642 1648 1494 1255 1185 1145 1053 1080 1076 1103 1288 1227 1251 1075 945 839 918 870 976 805 847 919 888 748 845 842 890 879 872 858 942 1089 1360 1499 1504 1488 1521 1514 1472 1447 1451 1443 1420 1484 1669 1927 1864 1794 1744 1695 1634 1570 1538 1513 1465 1436 1417 1342 1265 1065 941 742 700 698 714 830 990 1038 960 861 640 548 671 494 658 720 686 558 496 465 275 290 441 446 426 364 384 393 357 291 308 261 237 214 210 159 140 137 134 127 120 105 103 103 100 87 78 61 54 47 43 34 26 5 1 0 0 0 0 0 0 0 0 0 0 0 0 0 0 0 0 0 0 0 0 0 0 0 0 0 0 0 0 0 0 0 0 0 0 0 0 0 0 0 0 0 0 0 0 0 0 0
0 0 0 0 0 1 7 53 74 55 74 118 137 160 182 199 214 234 263 318 353 367 380 393 409 423 409 444 458 484 498 544 572 597 619 658 682 727 764 788 821 861 891 892 917 933 963 987 995 1031 1075 1113 1162 1188 1223 1271 1333 1380 1423 1471 1519 1565 1595 1652 1701 1732 1777 1810 1868 1908 1950 1992 1924 1589 1361 1394 1404 1503 1219 1105 909 880 888 970 868 697 831 975 1039 1278 1462 1683 1724 1659 1649 1926 2218 1979 1881 1818 1844 1769 1649 1631 1461 1412 1302 1240 1162 1092 1118 1126 1213 1166 1220 1103 1000 946 863 895 1018 921 936 854 908 921 791 895 947 934 889 890 952 1100 1288 1505 1507 1513 1509 1525 1495 1477 1459 1439 1434 1425 1450 1645 1930 1894 1842 1789 1735 1677 1612 1571 1547 1505 1461 1421 1398 1272 958 963 755 806 785 787 968 1032 903 842 813 771 739 596 639 773 695 631 540 504 320 189 407 460 469 459 427 447 444 365 361 320 290 268 240 219 184 165 159 149 142 133 121 124 114 107 98 86 71 63 57 51 42 33 28 6 0 0 0 0 0 0 0 0 0 0 0 0 0 0 0 0 0 0 0 0 0 0 0 0 0 0 0 0 0 0 0 0 0 0 0 0 0 0 0 0 0 0 0 0 0 0 0
0 0 0 0 0 2 31 60 87 113 123 136 150 167 197 215 231 256 284 312 345 362 376 391 409 431 442 446 466 498 522 552 586 620 644 673 691 730 765 790 823 855 875 910 943 945 972 998 1023 1052 1095 1110 1153 1195 1221 1267 1335 1399 1440 1484 1530 1577 1634 1646 1695 1720 1763 1818 1863 1901 1949 1993 2021 1846 1624 1508 1594 1394 1222 1200 1016 873 1042 1105 998 919 737 929 1172 1314 1357 1398 1539 1653 2111 1979 2073 2081 2022 1906 1793 1757 1703 1549 1528 1416 1437 1304 1185 1202 1171 1232 1261 1214 1163 1162 1133 1027 942 884 953 1090 959 987 921 950 871 854 944 954 933 969 1017 1302 1557 1534 1521 1517 1542 1539 1517 1476 1468 1459 1433 1439 1547 1776 1967 1909 1873 1820 1782 1721 1663 1618 1571 1523 1478 1442 1358 1172 920 788 784 877 867 977 1146 1008 932 878 950 772 706 691 744 761 672 551 378 304 226 389 551 507 539 542 519 498 424 394 419 363 315 311 254 196 184 188 179 161 159 140 130 136 134 123 111 99 80 71 62 56 48 40 30 21 5 0 0 0 0 0 0 0 0 0 0 0 0 0 0 0 0 0 0 0 0 0 0 0 0 0 0 0 0 0 0 0 0 0 0 0 0 0 0 0 0 0 0 0 0 0 0
0 0 0 0 0 2 48 66 91 113 142 154 172 192 206 230 254 270 287 306 325 345 362 382 406 430 442 462 488 482 523 551 576 614 663 693 715 721 740 789 824 861 881 912 957 978 963 1012 1049 1083 1107 1145 1174 1199 1241 1289 1346 1422 1470 1522 1559 1603 1658 1690 1719 1763 1796 1829 1877 1929 1978 2009 2055 2022 1794 1801 1709 1251 1175 1086 995 998 1014 1172 1251 1147 840 927 1200 1333 1388 1487 1477 1628 1735 2036 2024 2206 2071 1875 1823 1768 1647 1669 1507 1560 1550 1437 1365 1320 1257 1358 1407 1356 1249 1278 1220 1126 1099 912 925 1054 1028 1109 973 969 965 884 919 951 982 984 1027 1382 1580 1551 1539 1520 1543 1540 1504 1485 1469 1472 1440 1465 1680 1894 1984 1952 1910 1862 1796 1750 1693 1635 1601 1570 1525 1431 1194 955 750 889 1055 1107 1147 1179 1201 1115 1004 1103 946 924 890 806 859 704 563 334 343 246 269 540 624 607 608 543 559 519 469 390 329 293 297 247 201 231 199 192 187 181 180 170 159 146 151 135 120 106 97 83 67 64 58 43 39 30 16 0 0 0 0 0 0 0 0 0 0 0 0 0 0 0 0 0 0 0 0 0 0 0 0 0 0 0 0 0 0 0 0 0 0 0 0 0 0 0 0 0 0 0 0 0 0
0 0 0 0 0 3 9 51 83 97 142 155 169 192 210 227 248 262 289 306 321 344 366 393 414 438 473 488 513 524 526 554 589 622 654 684 707 744 772 804 829 855 882 904 941 976 1001 1030 1066 1091 1131 1166 1190 1212 1244 1300 1385 1429 1478 1520 1576 1638 1686 1719 1759 1799 1834 1868 1914 1946 2001 2050 2084 2135 2052 2011 1553 1231 1150 1084 1019 1108 1139 1187 1118 1012 815 889 1172 1343 1442 1498 1507 1514 1643 1748 1806 1995 2084 1929 1808 1754 1774 1699 1604 1669 1646 1520 1575 1472 1338 1398 1557 1494 1481 1435 1405 1251 1049 1018 1018 1002 1117 1233 988 1004 936 1024 982 990 992 1053 1079 1377 1591 1586 1545 1523 1546 1547 1527 1507 1490 1471 1473 1696 1870 2033 1994 1965 1936 1873 1812 1773 1733 1682 1611 1567 1534 1337 1038 859 957 1110 1280 1324 1309 1287 1236 1167 1118 1209 1052 985 868 860 671 612 427 192 306 486 592 671 667 649 601 588 540 519 438 349 412 398 349 295 230 200 208 211 201 189 194 191 172 174 157 147 130 120 110 94 70 75 62 61 50 39 31 27 0 0 0 0 0 0 0 0 0 0 0 0 0 0 0 0 0 0 0 0 0 0 0 0 0 0 0 0 0 0 0 0 0 0 0 0 0 0 0 0 0 0 0 0 0
0 0 0 0 0 4 6 10 78 90 117 140 160 176 197 222 232 248 266 315 313 342 366 396 418 444 486 511 525 546 590 587 559 616 656 685 717 729 771 801 835 860 882 905 931 966 1021 1050 1085 1100 1138 1143 1184 1219 1255 1333 1375 1438 1495 1553 1606 1644 1694 1728 1776 1813 1856 1888 1938 1969 2021 2060 2114 2154 2185 1838 1478 1263 1191 1130 1146 1179 1206 1206 1087 876 908 1025 1228 1408 1461 1538 1569 1494 1632 1717 1798 1910 1930 1978 1879 1775 1795 1719 1756 1702 1664 1645 1619 1591 1504 1538 1725 1659 1583 1354 1314 1168 1057 1184 1081 971 1111 1179 1073 1002 1086 1008 1030 1031 1042 1086 1162 1453 1610 1586 1558 1534 1559 1566 1537 1520 1496 1561 1740 1915 2068 2045 2010 1966 1919 1875 1827 1778 1741 1685 1628 1574 1515 1277 978 929 1136 1272 1387 1351 1323 1323 1267 1231 1280 1092 1042 1039 856 814 634 610 525 214 498 662 707 702 685 665 660 602 545 423 478 460 427 405 341 244 269 249 221 224 222 205 206 205 200 181 162 153 146 131 114 97 89 81 80 78 63 51 40 31 3 0 0 0 0 0 0 0 0 0 0 0 0 0 0 0 0 0 0 0 0 0 0 0 0 0 0 0 0 0 0 0 0 0 0 0 0 0 0 0 0 0 0 0 0
0 0 0 0 0 3 7 10 35 57 91 114 148 165 186 184 231 256 285 333 347 365 366 386 424 454 472 498 519 550 578 606 619 610 664 701 712 719 755 785 828 855 872 910 928 967 1002 1052 1094 1119 1160 1188 1221 1232 1315 1354 1400 1462 1510 1560 1602 1637 1691 1732 1778 1813 1863 1901 1948 2008 2045 2085 2132 2165 2195 1864 1593 1342 1278 1243 1255 1251 1245 1112 956 877 1037 1218 1380 1438 1501 1571 1647 1546 1603 1736 1712 1796 1827 1840 1940 1800 1816 1832 1806 1736 1895 1892 1692 1693 1694 1696 1690 1559 1469 1463 1308 1258 1291 1277 1245 1092 1078 1239 1255 1121 1227 1148 1210 1184 1171 1136 1271 1523 1623 1585 1580 1572 1588 1562 1535 1525 1538 1778 1975 1977 2081 2058 2031 1993 1939 1886 1842 1807 1744 1697 1659 1621 1355 1031 903 1144 1386 1454 1408 1372 1339 1326 1302 1260 1165 1078 1044 1015 718 679 642 456 317 169 697 734 737 740 703 700 668 568 558 547 523 488 448 411 334 363 302 245 238 236 232 219 210 216 204 191 179 167 155 138 126 108 100 87 89 77 65 63 46 32 10 3 0 0 0 0 0 0 0 0 0 0 0 0 0 0 0 0 0 0 0 0 0 0 0 0 0 0 0 0 0 0 0 0 0 0 0 0 0 0 0 0 0 0 0
0 0 0 0 0 3 6 9 10 34 68 100 133 141 167 214 246 266 267 312 345 377 388 407 437 463 489 509 513 543 566 595 624 647 678 668 718 718 760 790 836 853 886 922 954 970 1015 1052 1096 1136 1177 1200 1234 1295 1315 1339 1378 1440 1526 1570 1597 1625 1685 1716 1770 1814 1873 1908 1960 2007 2060 2096 2133 2180 2209 2009 1696 1430 1287 1277 1277 1286 1158 979 859 1025 1199 1362 1428 1413 1489 1550 1610 1661 1547 1606 1663 1764 1779 1799 1868 1917 1839 1854 1845 1997 2230 1972 1873 1882 2007 1800 1738 1641 1562 1598 1523 1369 1376 1434 1385 1215 1038 1245 1312 1274 1303 1261 1297 1317 1279 1295 1464 1688 1636 1617 1589 1597 1574 1563 1551 1625 1701 1758 1741 1753 1871 2007 2036 2006 1956 1907 1870 1809 1766 1720 1666 1622 1425 1081 1150 1297 1525 1472 1429 1392 1351 1321 1318 1295 1171 1099 1071 867 702 667 563 326 176 463 771 815 796 760 741 742 650 665 605 577 555 506 449 440 413 379 345 323 261 256 247 236 223 227 209 189 190 177 159 146 134 122 116 104 95 83 75 63 45 30 12 8 2 0 0 0 0 0 0 0 0 0 0 0 0 0 0 0 0 0 0 0 0 0 0 0 0 0 0 0 0 0 0 0 0 0 0 0 0 0 0 0 0 0 0
0 0 0 0 0 3 5 7 8 13 58 84 103 136 165 189 214 246 274 321 364 394 401 437 441 468 482 499 537 559 573 600 644 664 670 702 711 731 755 791 830 865 891 933 966 993 1024 1066 1090 1130 1182 1206 1258 1306 1353 1399 1447 1496 1533 1584 1618 1653 1694 1732 1772 1834 1871 1908 1965 2011 2056 2116 2156 2187 2228 2178 1840 1507 1342 1330 1330 1188 1028 884 928 1031 1290 1361 1422 1426 1473 1612 1659 1751 1687 1652 1676 1677 1750 1791 1872 1982 1971 1951 1979 2292 2474 2103 2163 2264 1919 1761 1707 1671 1714 1622 1620 1538 1521 1595 1481 1257 1112 1196 1375 1365 1333 1325 1375 1381 1527 1611 1700 1739 1710 1624 1620 1598 1592 1617 1609 1547 1485 1478 1462 1494 1549 1785 1891 1877 1913 1921 1876 1836 1782 1734 1682 1635 1574 1465 1444 1552 1529 1460 1427 1362 1299 1238 1264 1223 1081 1156 859 796 699 671 513 489 307 494 899 884 864 826 818 698 734 679 659 608 532 511 507 450 457 416 338 311 282 278 272 254 244 230 227 209 196 178 161 157 144 134 127 120 97 85 79 64 58 38 27 17 8 2 0 0 0 0 0 0 0 0 0 0 0 0 0 0 0 0 0 0 0 0 0 0 0 0 0 0 0 0 0 0 0 0 0 0 0 0 0 0 0 0 0
0 0 0 0 0 2 4 6 8 12 23 67 96 136 163 184 200 236 263 312 345 392 426 437 455 477 489 510 540 570 598 618 638 664 682 714 720 739 763 795 813 865 896 930 961 987 1018 1041 1071 1133 1175 1223 1266 1313 1372 1422 1468 1508 1554 1592 1604 1657 1702 1743 1799 1835 1866 1913 1956 2002 2051 2097 2144 2190 2232 2232 1895 1588 1414 1343 1216 1098 934 1011 1049 1019 1065 1283 1375 1423 1455 1457 1557 1763 1757 1737 1752 1760 1767 1814 1886 2036 2186 2346 2255 2444 2554 2427 2519 2251 2023 1985 1841 1795 1801 1768 1632 1693 1546 1627 1622 1437 1246 1147 1388 1384 1371 1354 1441 1447 1715 1815 1791 1778 1736 1672 1635 1623 1587 1549 1523 1493 1459 1443 1422 1431 1436 1525 1716 1719 1726 1828 1880 1818 1752 1686 1627 1592 1391 1320 1390 1589 1538 1487 1422 1314 1250 1157 1155 1079 998 985 968 837 668 545 476 402 360 604 834 930 903 833 777 803 752 694 628 619 589 551 508 447 407 370 347 335 304 293 291 283 268 250 237 221 206 184 171 162 162 149 145 129 116 100 82 80 73 60 36 26 21 15 3 0 0 0 0 0 0 0 0 0 0 0 0 0 0 0 0 0 0 0 0 0 0 0 0 0 0 0 0 0 0 0 0 0 0 0 0 0 0 0 0
0 0 0 0 0 0 3 5 8 7 10 37 86 108 149 171 201 222 254 287 330 367 383 396 472 486 513 524 551 563 587 628 657 680 698 714 743 751 775 810 819 866 900 933 966 986 1047 1092 1118 1161 1182 1218 1261 1311 1363 1415 1467 1515 1552 1586 1631 1673 1712 1743 1800 1819 1863 1899 1946 2003 2063 2089 2145 2197 2236 2249 1962 1693 1378 1294 1188 993 1077 1098 1131 1298 1051 1207 1273 1300 1371 1446 1554 1733 1788 1771 1754 1739 1762 1799 1868 2112 2304 2547 2682 2800 2717 2630 2625 2270 2146 2109 1935 1971 1977 2010 1835 1803 1667 1751 1707 1513 1416 1279 1384 1415 1402 1399 1464 1647 1835 1824 1822 1805 1758 1693 1654 1616 1588 1564 1533 1497 1469 1441 1420 1414 1401 1458 1536 1514 1505 1655 1810 1826 1753 1696 1644 1602 1388 1210 1199 1455 1538 1501 1456 1378 1283 1210 1041 1026 972 924 896 836 649 515 679 501 259 431 752 935 905 845 856 818 768 762 688 643 600 581 540 507 454 396 359 346 327 320 313 297 279 246 248 233 222 197 179 180 168 162 146 142 122 106 99 87 74 66 48 33 30 11 9 5 0 0 0 0 0 0 0 0 0 0 0 0 0 0 0 0 0 0 0 0 0 0 0 0 0 0 0 0 0 0 0 0 0 0 0 0 0 0 0
0 0 0 0 0 0 1 3 5 7 9 10 39 90 141 170 190 209 232 273 305 336 385 445 477 492 507 523 550 555 581 615 634 668 706 737 750 762 792 799 840 876 918 954 987 1012 1054 1099 1120 1159 1192 1219 1258 1324 1361 1415 1442 1492 1551 1585 1619 1665 1697 1745 1802 1828 1863 1921 1968 1998 2062 2105 2157 2216 2247 2281 2158 1920 1657 1371 1218 1043 1199 1187 1198 1358 1221 1189 1343 1463 1467 1534 1669 1733 1785 1752 1716 1708 1771 1760 1813 1924 2126 2258 2373 2698 2849 2872 2658 2360 2191 2115 2092 2096 2115 2147 2131 1915 1707 1867 1842 1619 1451 1285 1386 1483 1483 1499 1537 1738 1903 1857 1868 1821 1733 1706 1669 1632 1611 1585 1547 1504 1472 1445 1421 1416 1401 1405 1523 1508 1401 1564 1608 1665 1669 1691 1593 1603 1437 1241 1109 1377 1458 1456 1452 1374 1252 1146 1026 977 952 912 850 789 650 735 617 385 337 547 809 925 913 891 848 843 824 775 725 665 602 570 496 464 412 376 367 361 343 339 326 308 299 279 266 242 227 210 212 202 192 169 164 137 122 122 107 85 72 63 55 44 33 27 30 20 6 0 0 0 0 0 0 0 0 0 0 0 0 0 0 0 0 0 0 0 0 0 0 0 0 0 0 0 0 0 0 0 0 0 0 0 0 0 0
0 0 0 0 0 0 0 1 3 5 7 9 26 58 90 134 189 202 238 274 305 345 390 434 470 492 513 538 543 558 589 616 646 660 705 733 768 788 810 836 836 878 930 977 991 1022 1061 1098 1133 1160 1192 1240 1286 1342 1376 1409 1454 1507 1551 1571 1616 1662 1695 1754 1795 1832 1870 1895 1948 2003 2054 2098 2162 2204 2246 2286 2301 2016 1766 1496 1267 1204 1166 1146 1260 1409 1327 1367 1386 1382 1387 1465 1546 1603 1710 1741 1704 1664 1726 1841 1979 2140 2065 2167 2472 2816 2888 2971 2805 2451 2305 2234 2262 2204 2213 2283 2309 2151 1792 1878 1809 1682 1480 1346 1449 1565 1510 1558 1624 1825 1937 1931 1913 1787 1736 1697 1687 1651 1613 1614 1558 1508 1476 1449 1427 1426 1401 1388 1382 1368 1335 1326 1387 1551 1454 1469 1372 1326 1320 1315 1094 1193 1314 1253 1164 1200 1083 1039 997 949 920 893 809 765 775 596 292 258 689 763 939 972 873 819 829 862 811 751 701 661 632 576 506 472 409 400 386 377 360 359 343 324 304 300 284 260 243 242 226 209 199 185 160 144 130 124 109 93 85 73 63 56 54 48 39 30 21 6 0 0 0 0 0 0 0 0 0 0 0 0 0 0 0 0 0 0 0 0 0 0 0 0 0 0 0 0 0 0 0 0 0 0 0 0 0
0 0 0 0 0 0 0 0 2 4 7 9 26 47 80 123 172 191 242 275 307 352 384 415 474 485 501 535 552 566 592 612 636 661 699 727 750 789 823 846 866 904 927 975 1012 1050 1082 1110 1164 1205 1234 1251 1303 1349 1389 1429 1482 1497 1561 1591 1628 1663 1705 1758 1782 1820 1863 1909 1961 2001 2054 2106 2145 2197 2244 2306 2345 2174 1904 1613 1340 1337 1322 1201 1251 1308 1451 1471 1449 1405 1474 1470 1499 1537 1642 1567 1631 1599 1763 1870 1995 2200 2468 2638 2819 2924 2723 2871 2808 2786 2592 2594 2571 2420 2517 2556 2607 2397 2082 2046 1862 1694 1499 1519 1516 1697 1581 1666 1723 2014 1973 1929 1864 1853 1763 1720 1684 1657 1622 1593 1552 1510 1470 1467 1442 1425 1405 1381 1374 1364 1373 1343 1316 1356 1263 1313 1188 1168 1055 1042 1093 1017 1020 1031 962 930 938 855 809 831 843 819 713 589 496 412 261 629 836 883 858 727 596 541 557 630 632 771 708 665 635 584 534 446 434 421 402 395 377 354 348 332 320 313 291 278 273 249 243 220 200 186 171 148 144 139 128 107 95 85 74 66 61 57 50 40 29 17 0 0 0 0 0 0 0 0 0 0 0 0 0 0 0 0 0 0 0 0 0 0 0 0 0 0 0 0 0 0 0 0 0 0 0 0 0
0 0 0 0 0 0 0 0 0 3 5 8 12 36 68 102 143 197 226 248 314 336 362 401 457 471 486 516 545 560 578 595 631 660 692 715 747 793 812 857 876 901 934 967 1011 1054 1089 1122 1162 1186 1237 1281 1314 1349 1392 1423 1460 1504 1545 1586 1628 1666 1702 1747 1794 1828 1878 1918 1970 2024 2056 2108 2149 2199 2254 2302 2356 2328 2027 1758 1483 1368 1380 1340 1237 1235 1359 1523 1442 1430 1454 1358 1377 1419 1464 1501 1499 1563 1679 1783 2046 2267 2616 2828 2887 2715 2596 2610 2655 2771 3002 2891 2801 2711 2813 2831 2663 2372 2331 1925 1821 1659 1570 1721 1740 1858 1813 1803 1876 2017 1959 1889 1879 1799 1773 1740 1698 1652 1638 1624 1555 1521 1497 1465 1459 1433 1397 1377 1360 1361 1362 1350 1304 1285 1226 1216 1149 1145 1132 1132 1100 1082 1064 1032 1008 968 852 640 582 614 576 686 523 412 221 343 568 735 665 676 610 554 550 562 517 511 518 556 632 634 609 547 483 459 461 440 414 403 380 380 372 354 342 328 313 300 279 267 253 228 218 208 183 179 163 159 134 119 101 101 91 74 69 69 62 50 37 26 13 0 0 0 0 0 0 0 0 0 0 0 0 0 0 0 0 0 0 0 0 0 0 0 0 0 0 0 0 0 0 0 0 0 0 0 0
0 0 0 0 0 0 0 0 0 1 3 6 8 27 62 86 132 163 190 260 296 313 351 387 412 432 461 498 525 537 551 592 620 644 685 721 751 774 781 822 863 899 929 958 1020 1049 1088 1123 1156 1198 1239 1279 1313 1357 1392 1420 1448 1502 1530 1568 1610 1671 1700 1738 1783 1832 1870 1918 1968 2021 2066 2106 2155 2208 2264 2311 2352 2383 2153 1935 1664 1453 1415 1341 1294 1263 1249 1380 1437 1473 1338 1379 1421 1416 1442 1453 1544 1650 1630 1709 1890 2354 2753 2935 2496 2150 2063 2117 2497 2419 2505 2842 2875 2819 2942 2866 2805 2657 2309 1994 1822 1689 1803 1852 1885 2100 2072 2145 2076 1979 1906 1872 1840 1802 1762 1729 1685 1650 1644 1606 1560 1543 1517 1465 1473 1429 1412 1384 1355 1352 1353 1326 1316 1261 1227 1215 1173 1154 1138 1126 1114 962 844 846 738 649 715 514 468 335 270 458 365 257 521 789 710 520 520 520 519 540 581 566 547 510 507 508 507 505 501 486 476 470 459 436 427 400 407 401 380 369 356 339 329 308 292 281 262 252 236 215 204 190 182 166 145 130 121 108 98 80 88 79 71 55 46 35 19 0 0 0 0 0 0 0 0 0 0 0 0 0 0 0 0 0 0 0 0 0 0 0 0 0 0 0 0 0 0 0 0 0 0 0 0
0 0 0 0 0 0 0 0 0 0 1 5 7 20 47 72 96 116 174 233 270 288 312 360 383 413 445 483 518 541 569 596 630 655 699 733 758 782 799 822 829 881 913 950 1007 1060 1108 1137 1178 1208 1245 1272 1306 1344 1384 1406 1450 1502 1539 1571 1601 1641 1691 1733 1770 1838 1881 1924 1971 2009 2054 2134 2176 2230 2262 2300 2340 2379 2333 2105 1890 1708 1521 1479 1401 1317 1283 1274 1352 1313 1328 1406 1475 1527 1478 1506 1644 1679 1737 1724 1857 2146 2580 2629 2298 2098 1938 2140 2215 2100 2358 2597 2955 3017 2945 2877 2765 2483 2272 1895 1821 1903 1966 2041 2150 2214 2160 2114 2042 1970 1938 1867 1862 1801 1761 1713 1657 1650 1616 1574 1540 1546 1513 1472 1454 1414 1387 1372 1386 1338 1316 1317 1305 1264 1235 1204 1195 1167 1139 1036 892 787 698 717 720 763 662 550 544 499 277 275 291 504 730 789 611 519 519 520 520 520 556 641 572 511 508 505 503 497 496 489 477 473 450 450 428 432 427 418 408 381 371 362 343 324 310 294 271 256 241 228 213 201 190 172 158 151 138 119 108 101 97 91 79 68 59 36 16 4 0 0 0 0 0 0 0 0 0 0 0 0 0 0 0 0 0 0 0 0 0 0 0 0 0 0 0 0 0 0 0 0 0 0 0
0 0 0 0 0 0 0 0 0 0 0 0 4 10 32 62 91 110 133 189 238 274 287 332 361 380 427 451 486 523 563 599 635 662 682 705 737 740 799 833 823 891 944 981 1016 1063 1087 1133 1181 1223 1253 1279 1322 1370 1395 1428 1470 1505 1530 1586 1622 1664 1704 1748 1804 1860 1894 1919 1959 2018 2080 2127 2188 2230 2270 2304 2335 2374 2418 2307 2037 1910 1728 1585 1490 1412 1517 1424 1365 1329 1418 1474 1547 1572 1553 1529 1660 1762 1749 1770 1812 1975 2326 2516 2108 1879 1970 1878 1978 1954 2077 2376 2999 3000 2912 2863 2814 2653 2175 1898 1930 2041 2182 2349 2283 2199 2139 2087 2032 1976 1924 1909 1869 1825 1781 1722 1669 1614 1588 1560 1533 1519 1497 1467 1459 1447 1434 1408 1373 1331 1292 1280 1270 1258 1222 1183 982 952 998 908 811 872 988 1027 951 681 448 349 366 673 718 509 629 723 961 716 546 526 703 690 619 706 857 735 668 597 515 507 500 496 504 499 488 488 486 479 467 463 448 439 417 409 394 376 358 345 327 301 289 277 256 238 228 209 197 188 174 163 139 134 112 111 111 103 93 84 63 38 22 28 0 0 0 0 0 0 0 0 0 0 0 0 0 0 0 0 0 0 0 0 0 0 0 0 0 0 0 0 0 0 0 0 0 0 0
0 0 0 0 0 0 0 0 0 0 0 0 0 4 8 35 64 80 107 134 159 221 211 289 325 366 395 445 477 524 559 591 621 656 656 702 738 767 795 841 877 913 953 990 1020 1057 1088 1132 1171 1218 1243 1283 1312 1357 1386 1441 1490 1511 1539 1586 1627 1681 1723 1769 1802 1855 1902 1930 1965 2011 2053 2122 2181 2234 2263 2307 2340 2368 2425 2452 2255 2085 1913 1791 1655 1616 1551 1473 1411 1546 1464 1515 1571 1571 1561 1575 1718 1769 1769 1778 1885 2069 2350 2247 1992 1785 1825 1812 1941 2128 2245 2577 2984 3038 2956 2895 2809 2621 2295 2052 2027 2223 2428 2359 2269 2212 2139 2078 2013 1971 1928 1885 1882 1843 1799 1728 1674 1625 1566 1555 1581 1540 1548 1493 1439 1461 1435 1405 1379 1343 1324 1303 1279 1248 1219 1118 823 846 786 805 867 1021 867 747 637 582 557 616 651 896 989 904 949 1027 825 611 527 559 789 1021 982 931 890 759 713 675 582 522 520 506 567 582 563 556 533 518 515 499 482 454 445 439 418 398 365 354 334 332 321 304 277 266 243 219 209 195 179 160 156 139 114 130 125 117 105 89 46 45 56 41 22 1 0 0 0 0 0 0 0 0 0 0 0 0 0 0 0 0 0 0 0 0 0 0 0 0 0 0 0 0 0 0 0 0 0
0 0 0 0 0 0 0 0 0 0 0 0 0 0 4 18 39 57 73 97 103 129 164 245 298 343 382 420 457 504 471 546 616 651 677 711 729 766 806 853 887 910 952 990 1017 1058 1088 1117 1172 1220 1242 1280 1315 1359 1403 1442 1459 1497 1532 1594 1640 1677 1713 1748 1795 1844 1890 1936 1983 2032 2059 2118 2162 2217 2266 2312 2336 2376 2428 2499 2536 2321 2134 1997 1814 1713 1647 1579 1626 1523 1625 1535 1587 1613 1581 1594 1745 1785 1780 1861 1954 2181 2078 1990 1938 1640 1840 1922 2035 2329 2571 2610 2805 2806 2716 2783 2812 2738 2468 2321 2282 2455 2401 2329 2280 2204 2139 2083 2020 1964 1910 1874 1855 1827 1785 1737 1694 1639 1584 1532 1574 1532 1496 1475 1452 1414 1442 1398 1361 1346 1333 1307 1270 1266 1227 1104 887 1087 1087 1038 957 787 679 828 822 690 829 961 1026 1043 1235 1200 1239 1061 829 564 667 811 947 1044 1036 914 872 782 761 732 722 715 735 524 687 633 615 601 576 563 551 531 512 486 479 459 439 413 382 366 364 353 359 351 319 289 259 236 218 202 187 177 158 160 133 144 141 129 105 64 86 80 65 50 39 29 7 0 0 0 0 0 0 0 0 0 0 0 0 0 0 0 0 0 0 0 0 0 0 0 0 0 0 0 0 0 0 0 0
0 0 0 0 0 0 0 0 0 0 0 0 0 0 0 0 23 44 51 77 76 85 95 135 229 308 351 397 393 472 536 592 619 651 682 715 754 782 809 836 875 905 951 987 1030 1082 1113 1148 1181 1216 1258 1297 1332 1358 1412 1437 1467 1524 1556 1599 1638 1679 1717 1756 1795 1824 1876 1932 1970 2022 2068 2113 2156 2215 2261 2308 2350 2405 2449 2514 2561 2583 2329 2189 2043 1879 1791 1737 1680 1556 1667 1626 1624 1627 1607 1657 1822 1859 1881 2036 1942 1951 1980 1903 1794 1627 1949 2045 2255 2404 2535 2728 2748 2656 2496 2506 2601 2701 2630 2567 2494 2415 2345 2302 2262 2198 2133 2074 2018 1961 1908 1862 1841 1804 1765 1721 1682 1632 1584 1529 1524 1512 1521 1463 1431 1405 1401 1388 1360 1345 1330 1324 1285 1145 1038 884 1024 1143 1124 964 921 906 751 969 1067 1110 1128 1008 1146 1311 1314 1315 1300 1118 718 551 832 971 1108 1017 887 812 783 776 776 776 767 550 583 732 705 677 647 634 620 598 580 558 526 510 495 475 458 438 402 367 435 442 423 394 345 292 274 251 222 215 200 189 179 174 166 161 155 120 99 120 104 89 74 64 52 31 19 10 0 0 0 0 0 0 0 0 0 0 0 0 0 0 0 0 0 0 0 0 0 0 0 0 0 0 0 0 0 0 0
0 0 0 0 0 0 0 0 0 0 0 0 0 0 0 0 5 20 30 32 45 59 77 96 154 235 246 328 422 477 528 574 605 639 674 696 743 780 812 841 863 898 952 976 1035 1069 1116 1151 1185 1213 1248 1291 1311 1367 1418 1458 1494 1522 1564 1618 1656 1687 1722 1766 1795 1842 1870 1911 1960 2021 2071 2124 2177 2220 2271 2338 2410 2415 2476 2515 2597 2607 2626 2510 2319 2165 2020 1937 1811 1655 1719 1737 1670 1670 1692 1803 1942 2024 1929 1843 1821 1884 1884 1818 1577 1647 2040 2220 2263 2317 2490 2578 2563 2403 2260 2246 2359 2470 2579 2516 2460 2386 2333 2287 2232 2179 2118 2064 2009 1952 1888 1850 1818 1807 1771 1731 1695 1628 1601 1561 1530 1503 1486 1452 1446 1430 1412 1389 1377 1367 1346 1299 1117 1020 1026 1160 1203 1155 1142 1082 875 887 902 1096 1248 1343 1232 1172 1351 1334 1340 1323 1311 1264 1022 774 1021 1185 1114 1014 925 818 794 802 786 783 771 763 751 733 719 701 675 661 635 627 611 581 556 534 532 501 475 437 427 397 501 463 407 378 338 305 281 261 240 234 204 208 194 182 162 176 157 129 139 131 118 105 90 75 53 41 30 19 5 0 0 0 0 0 0 0 0 0 0 0 0 0 0 0 0 0 0 0 0 0 0 0 0 0 0 0 0 0 0
0 0 0 0 0 0 0 0 0 0 0 0 0 0 0 0 0 2 10 18 29 37 64 89 121 129 232 332 382 454 516 540 592 620 663 712 746 782 802 838 882 917 951 992 1015 1072 1119 1162 1205 1235 1258 1302 1342 1374 1419 1435 1479 1542 1570 1615 1654 1688 1723 1762 1789 1830 1873 1921 1980 2036 2086 2118 2186 2239 2289 2338 2388 2436 2474 2525 2581 2607 2640 2667 2549 2418 2310 2208 2004 1824 1766 1817 1870 1783 1813 1951 1951 1785 1757 1728 1667 1679 1643 1618 1463 1678 1905 1985 2250 2233 2397 2361 2202 2052 2036 2062 2140 2299 2523 2494 2424 2372 2323 2263 2214 2175 2111 2065 2020 1944 1910 1877 1840 1769 1751 1711 1678 1630 1591 1556 1520 1487 1463 1424 1417 1388 1367 1390 1364 1362 1330 1055 1063 1119 1231 1218 1184 1155 1145 1131 1129 908 1092 1287 1448 1405 1395 1395 1384 1362 1350 1344 1329 1286 1277 1155 1113 1217 1073 1023 975 871 944 874 823 801 785 768 751 741 732 709 698 671 661 654 632 600 568 555 536 510 486 456 419 421 442 464 381 362 339 312 284 263 239 241 231 225 213 203 193 188 155 161 157 148 133 119 101 75 64 52 37 40 29 0 0 0 0 0 0 0 0 0 0 0 0 0 0 0 0 0 0 0 0 0 0 0 0 0 0 0 0 0 0
0 0 0 0 0 0 0 0 0 0 0 0 0 0 0 0 0 0 0 6 6 21 55 91 119 169 228 267 340 418 483 528 561 611 653 688 724 740 798 796 844 897 920 992 1039 1085 1116 1146 1201 1231 1264 1286 1321 1376 1417 1451 1497 1540 1575 1611 1651 1688 1719 1756 1790 1828 1884 1926 1978 2025 2086 2137 2192 2240 2289 2330 2394 2458 2500 2542 2580 2606 2642 2669 2706 2707 2569 2405 2284 2256 2010 1923 1933 1970 1930 1993 1809 1740 1702 1611 1547 1538 1457 1418 1337 1647 1750 1873 2075 2067 2023 2016 1967 1964 1972 2007 2044 2145 2348 2511 2463 2399 2326 2264 2191 2159 2105 2045 1987 1959 1932 1881 1842 1770 1721 1703 1665 1598 1582 1565 1524 1480 1458 1424 1394 1402 1392 1371 1371 1336 1196 1155 1308 1271 1243 1213 1194 1180 1148 1145 1124 1137 1226 1441 1442 1453 1430 1426 1402 1387 1381 1353 1337 1319 1296 1300 1297 1227 1167 1072 912 872 869 853 844 829 805 781 760 740 739 722 710 698 683 671 652 618 587 560 550 531 505 475 453 442 426 409 391 359 339 338 297 288 280 261 247 236 227 213 212 187 193 185 179 165 152 118 96 84 71 54 67 50 34 24 0 0 0 0 0 0 0 0 0 0 0 0 0 0 0 0 0 0 0 0 0 0 0 0 0 0 0 0 0
0 0 0 0 0 0 0 0 0 0 0 0 0 0 0 0 0 0 0 8 15 31 53 76 105 151 197 234 303 402 458 503 542 585 632 557 464 543 787 825 864 909 962 995 1041 1079 1115 1149 1184 1220 1253 1286 1321 1367 1412 1455 1501 1543 1577 1614 1661 1700 1728 1765 1791 1830 1891 1929 1977 2032 2094 2149 2202 2252 2292 2347 2410 2457 2493 2525 2558 2600 2638 2674 2714 2739 2776 2749 2644 2585 2236 2120 2207 2049 1950 1922 1885 1657 1692 1621 1555 1480 1398 1193 1364 1552 1698 1825 1974 1867 1801 1794 1798 1809 1844 1960 1957 2024 2184 2356 2355 2361 2326 2315 2226 2188 2119 2057 2010 1953 1929 1875 1820 1776 1720 1677 1650 1621 1590 1544 1543 1526 1459 1431 1432 1414 1387 1358 1351 1332 1326 1328 1292 1275 1243 1224 1209 1200 1160 1142 1164 1213 1391 1530 1490 1490 1476 1451 1422 1410 1385 1363 1355 1319 1319 1298 1213 1016 927 900 891 885 878 870 858 846 824 807 783 775 761 735 720 716 701 685 673 640 603 579 573 554 527 511 484 473 449 429 413 395 379 358 333 319 302 284 261 249 234 233 216 192 213 205 198 182 130 116 103 89 105 88 70 55 42 31 1 0 0 0 0 0 0 0 0 0 0 0 0 0 0 0 0 0 0 0 0 0 0 0 0 0 0 0 0
0 0 0 0 0 0 0 0 0 0 0 0 0 0 0 0 0 0 0 11 25 41 57 77 113 147 190 223 282 365 434 460 486 416 394 392 466 740 774 819 864 917 958 999 1045 1084 1107 1136 1191 1225 1255 1286 1320 1369 1404 1463 1498 1535 1573 1615 1656 1700 1722 1753 1803 1843 1881 1931 1989 2035 2093 2156 2211 2257 2307 2357 2399 2451 2499 2531 2545 2590 2645 2678 2717 2754 2788 2814 2864 2769 2619 2556 2353 1840 1772 1826 1819 1654 1547 1495 1413 1296 1186 1189 1339 1512 1679 1801 1859 1724 1630 1586 1615 1631 1750 1884 1900 1869 1990 2079 2074 2307 2290 2249 2184 2151 2108 2084 2019 1958 1921 1865 1832 1789 1752 1685 1651 1604 1600 1575 1538 1522 1490 1469 1436 1411 1390 1381 1360 1337 1333 1310 1302 1280 1258 1243 1224 1188 1152 1166 1234 1359 1588 1520 1528 1523 1497 1467 1444 1429 1401 1366 1341 1341 1316 1291 1097 930 914 904 891 894 887 880 869 851 839 819 810 791 770 755 744 729 723 695 681 654 618 598 582 552 542 512 510 502 487 472 461 434 406 373 357 343 327 313 284 269 255 251 234 238 235 228 212 163 134 130 130 125 107 93 76 59 45 31 21 0 0 0 0 0 0 0 0 0 0 0 0 0 0 0 0 0 0 0 0 0 0 0 0 0 0 0 0
0 0 0 0 0 0 0 0 0 0 0 0 0 0 0 0 0 0 0 0 15 29 43 63 98 138 155 194 245 312 328 261 207 328 433 569 684 722 771 817 862 909 957 996 1035 1072 1104 1131 1172 1210 1241 1273 1321 1355 1396 1448 1490 1527 1571 1618 1654 1687 1730 1775 1821 1872 1906 1957 2003 2042 2096 2159 2207 2259 2311 2369 2408 2466 2502 2550 2572 2590 2635 2678 2735 2762 2791 2819 2800 2848 2675 2626 2181 1903 1716 1705 1751 1607 1440 1337 1256 1172 1076 1246 1387 1508 1753 1691 1718 1525 1546 1533 1495 1541 1640 1709 1709 1785 1746 1711 1851 2069 2291 2252 2177 2145 2092 2054 1989 1964 1927 1886 1823 1784 1758 1700 1673 1636 1607 1589 1549 1520 1498 1460 1439 1395 1403 1378 1363 1335 1335 1316 1307 1285 1258 1236 1207 1173 1168 1200 1278 1593 1641 1591 1547 1547 1531 1480 1442 1438 1412 1356 1306 1100 1093 1057 970 930 921 906 906 902 892 891 880 869 856 842 821 797 792 770 763 752 728 717 698 656 630 615 573 583 585 564 553 540 526 509 486 434 437 401 393 383 357 327 312 288 275 258 268 256 256 238 200 153 180 156 151 128 112 96 82 73 60 48 47 0 0 0 0 0 0 0 0 0 0 0 0 0 0 0 0 0 0 0 0 0 0 0 0 0 0 0 0
0 0 0 0 0 0 0 0 0 0 0 0 0 0 0 0 0 0 0 0 0 8 29 46 62 98 146 162 206 262 209 215 434 522 566 605 656 694 744 796 858 910 958 1000 1030 1069 1104 1121 1164 1196 1242 1279 1315 1338 1385 1425 1478 1516 1552 1596 1646 1694 1737 1777 1818 1866 1918 1976 2014 2055 2105 2152 2204 2252 2311 2359 2405 2461 2505 2534 2575 2611 2645 2690 2721 2760 2797 2808 2437 2626 2690 2520 2387 2025 1776 1607 1659 1598 1406 1272 1144 1045 1167 1314 1407 1545 1483 1583 1552 1455 1492 1500 1477 1472 1511 1532 1526 1557 1542 1586 1660 1892 2193 2263 2212 2163 2106 2045 1993 1946 1873 1852 1825 1790 1746 1720 1692 1652 1622 1596 1571 1518 1486 1444 1418 1391 1380 1351 1361 1363 1348 1339 1327 1269 1258 1215 1261 1275 1241 1287 1356 1667 1609 1585 1595 1561 1529 1501 1473 1406 1233 1159 1123 1027 987 973 957 938 923 919 914 908 906 898 888 880 867 849 839 816 805 788 780 764 745 729 698 666 644 657 657 636 606 609 596 559 564 546 509 495 456 430 427 408 387 362 338 319 294 285 292 275 265 249 207 200 187 172 157 143 122 114 98 93 82 78 65 42 0 0 0 0 0 0 0 0 0 0 0 0 0 0 0 0 0 0 0 0 0 0 0 0 0 0 0
0 0 0 0 0 0 0 0 0 0 0 0 0 0 0 0 0 0 0 0 0 0 11 31 58 86 91 62 77 214 107 235 431 487 523 582 637 693 737 777 831 889 936 978 1017 1052 1091 1118 1156 1189 1223 1261 1309 1323 1374 1413 1465 1506 1504 1559 1617 1659 1718 1771 1817 1860 1916 1973 2017 2058 2127 2158 2199 2252 2308 2362 2404 2451 2486 2531 2563 2625 2657 2700 2735 2758 2794 2682 2418 2453 2513 2430 2440 1930 1732 1649 1549 1576 1435 1315 1146 1011 1196 1305 1402 1351 1361 1460 1460 1440 1469 1496 1456 1366 1412 1402 1411 1446 1472 1503 1602 1801 2073 2249 2213 2173 2118 2065 2011 1946 1906 1859 1833 1800 1778 1761 1705 1649 1614 1592 1548 1530 1484 1442 1399 1382 1364 1378 1376 1360 1346 1342 1318 1299 1293 1326 1339 1455 1429 1609 1644 1637 1611 1626 1606 1575 1559 1517 1493 1336 1190 1092 1060 1006 986 969 955 941 929 927 919 921 917 908 903 899 892 867 846 830 814 797 795 783 762 739 730 732 727 719 712 690 665 666 647 632 606 576 551 535 499 473 464 438 414 392 369 342 319 280 314 296 286 240 230 213 238 209 188 166 154 137 122 112 114 99 89 75 56 6 0 5 13 13 0 0 0 0 0 0 0 0 0 0 0 0 0 0 0 0 0 0 0 0 0
0 0 0 0 0 0 0 0 0 0 0 0 0 0 0 0 0 0 0 0 0 0 8 22 43 51 65 119 166 154 282 338 377 447 517 567 607 661 724 785 836 845 906 968 1006 1043 1083 1118 1150 1185 1224 1251 1296 1333 1371 1403 1445 1496 1539 1584 1651 1698 1747 1790 1848 1875 1909 1971 2030 2084 2135 2168 2206 2249 2296 2353 2402 2443 2491 2523 2574 2630 2663 2700 2730 2763 2601 2465 2325 2047 2185 2189 2267 2036 1826 1639 1502 1596 1390 1250 1177 950 1091 1196 1234 1230 1381 1478 1401 1367 1376 1399 1436 1427 1307 1330 1363 1388 1438 1454 1532 1700 2005 2216 2183 2156 2112 2090 2040 1980 1926 1896 1863 1849 1805 1748 1712 1670 1639 1612 1576 1549 1493 1449 1414 1388 1397 1392 1378 1350 1347 1342 1311 1332 1491 1540 1386 1394 1554 1671 1649 1613 1617 1639 1585 1528 1574 1549 1397 1315 1227 1147 1053 1004 987 969 952 944 938 933 927 928 920 913 914 917 898 893 869 840 819 813 818 825 814 811 808 806 790 784 771 750 750 734 703 678 648 622 608 592 542 520 501 474 444 412 397 368 352 343 342 316 309 224 308 279 257 230 223 206 190 168 146 141 132 125 115 101 91 75 58 51 31 25 21 16 0 0 0 0 0 0 0 0 0 0 0 0 0 0 0 0 0 0 0
0 0 0 0 0 0 0 0 0 0 0 0 0 0 0 0 0 0 0 0 0 0 0 16 27 41 68 97 129 190 246 312 379 441 489 522 587 656 721 755 814 860 906 964 1009 1040 1079 1115 1144 1181 1220 1248 1288 1329 1351 1395 1440 1486 1552 1589 1631 1684 1734 1786 1847 1896 1951 1998 2035 2107 2137 2176 2220 2228 2289 2336 2384 2428 2460 2516 2559 2604 2641 2687 2710 2618 2401 2287 2121 2032 1938 1841 1893 2134 1991 1759 1499 1493 1421 1257 1239 1050 968 1030 1095 1237 1249 1295 1301 1259 1298 1346 1364 1362 1330 1243 1339 1368 1383 1410 1455 1644 1821 2115 2174 2159 2133 2101 2053 1997 1966 1927 1904 1854 1814 1770 1734 1685 1660 1632 1599 1563 1504 1464 1423 1390 1416 1441 1370 1337 1340 1317 1444 1467 1589 1351 1309 1313 1369 1526 1628 1625 1631 1482 1331 1148 1279 1331 1170 1113 1060 1046 1024 1007 990 985 964 959 945 939 935 926 924 925 927 928 937 930 910 886 871 864 880 928 903 876 875 867 851 857 854 809 802 784 744 721 701 670 651 608 577 550 530 512 479 458 431 423 390 378 355 275 233 326 325 303 296 275 265 243 219 206 179 171 152 150 148 131 120 98 87 76 67 51 40 25 16 0 0 0 0 0 0 0 0 0 0 0 0 0 0 0 0 0 0
0 0 0 0 0 0 0 0 0 0 0 0 0 0 0 0 0 0 0 0 0 0 0 0 0 30 66 98 139 177 217 276 333 403 437 470 574 656 717 765 807 861 903 946 994 1036 1057 1101 1093 1102 1193 1235 1257 1310 1354 1400 1445 1486 1530 1581 1632 1678 1732 1791 1844 1889 1942 2002 2073 2127 2156 2198 2213 2263 2301 2328 2370 2411 2466 2507 2549 2586 2631 2665 2515 2511 2229 1980 1973 1780 1712 1678 1673 1807 1737 1609 1543 1424 1334 1224 1138 1067 930 994 1004 1066 1108 1140 1180 1162 1232 1284 1286 1263 1293 1221 1294 1359 1379 1389 1416 1617 1787 2056 2187 2165 2145 2128 2095 2052 2005 1950 1902 1863 1811 1772 1727 1693 1695 1652 1645 1635 1508 1469 1434 1396 1382 1378 1342 1334 1340 1361 1394 1472 1357 1291 1259 1271 1312 1386 1507 1620 1484 1336 1233 1097 1089 1106 1073 1065 1055 1046 1030 1012 1011 1000 984 969 957 947 935 931 933 935 937 951 957 977 956 943 942 960 987 994 990 934 938 924 921 932 919 880 855 822 788 779 739 716 687 640 616 594 572 526 515 492 467 441 428 411 376 285 394 372 358 347 341 315 297 278 250 228 209 192 184 177 168 157 137 129 120 104 91 83 68 57 40 23 0 0 0 0 0 0 0 0 0 0 0 0 0 0 0 0 0
0 0 0 0 0 0 0 0 0 0 0 0 0 0 0 0 0 0 0 0 0 0 0 0 0 30 50 76 115 163 192 266 328 372 416 506 586 652 715 765 813 856 891 927 959 1001 1013 1043 1119 1158 1201 1241 1259 1291 1338 1385 1438 1488 1539 1592 1627 1678 1749 1784 1844 1903 1971 2012 2070 2123 2173 2219 2238 2254 2301 2342 2365 2414 2462 2479 2536 2589 2635 2666 2461 2291 2255 2018 1742 1625 1607 1620 1634 1668 1748 1504 1484 1373 1316 1260 1176 985 839 1034 1068 1083 1040 1119 1144 1193 1196 1250 1229 1231 1235 1179 1243 1384 1390 1383 1398 1556 1672 1901 2192 2181 2157 2136 2101 2054 2011 1959 1923 1875 1807 1775 1742 1727 1705 1692 1740 1717 1516 1479 1446 1404 1375 1362 1357 1364 1430 1544 1421 1356 1302 1255 1238 1238 1258 1292 1426 1560 1196 1109 1089 1086 1082 1069 1063 1054 1053 1044 1031 1031 1022 1005 993 977 972 944 938 934 942 949 973 982 1001 1033 1017 1015 1031 1057 1090 1086 1050 1029 1003 890 981 990 970 936 902 861 848 738 779 754 737 693 651 633 604 581 555 523 496 473 455 449 406 298 417 411 392 393 373 358 338 311 287 255 243 229 220 215 199 181 171 162 140 125 112 98 89 75 57 39 25 0 0 0 0 0 0 0 0 0 0 0 0 0 0 0 0
0 0 0 0 0 0 0 0 0 0 0 0 0 0 0 0 0 0 0 0 0 0 0 0 0 0 46 77 109 140 172 234 250 338 417 484 559 634 686 749 793 817 865 879 920 967 1020 1054 1099 1135 1180 1212 1246 1285 1325 1378 1420 1481 1528 1579 1636 1681 1709 1780 1849 1908 1950 2004 2058 2103 2138 2185 2224 2253 2291 2378 2377 2428 2464 2499 2549 2588 2629 2619 2323 1926 1994 1829 1586 1542 1527 1563 1561 1590 1607 1535 1343 1141 1113 1032 966 906 919 1013 1002 1125 1193 1214 1208 1196 1199 1204 1214 1222 1127 1235 1296 1345 1348 1378 1395 1440 1557 1783 2194 2176 2155 2138 2100 2043 2014 1993 1979 1951 1841 1794 1766 1752 1745 1793 1911 1837 1702 1520 1464 1462 1428 1402 1401 1466 1647 1612 1544 1390 1351 1342 1217 1208 1229 1283 1429 1490 1139 1094 1081 1080 1079 1069 1065 1062 1063 1053 1053 1040 1027 1020 1008 998 978 963 945 947 950 1020 994 1016 1082 1122 1122 1095 1123 1160 1168 1166 1122 1093 1071 1044 1043 1025 1002 986 946 907 770 856 830 801 768 739 697 661 648 614 583 558 538 513 496 489 463 325 275 445 441 437 419 404 386 365 334 303 285 271 247 239 226 213 202 171 154 142 131 119 106 88 69 50 39 28 0 0 0 0 0 0 0 0 0 0 0 0 0 0 0
0 0 0 0 0 0 0 0 0 0 0 0 0 0 0 0 0 0 0 0 0 0 0 0 0 0 30 63 88 129 161 209 241 325 410 486 555 614 660 703 762 762 855 898 939 962 1011 1044 1094 1118 1178 1187 1233 1275 1300 1363 1380 1472 1483 1557 1619 1668 1723 1765 1788 1896 1945 1996 2024 2071 2099 2148 2187 2236 2279 2329 2368 2412 2451 2487 2529 2590 2631 2584 2284 2008 1711 1670 1572 1497 1441 1434 1319 1430 1387 1452 1263 1164 984 864 814 760 779 875 1070 1095 1125 1154 1199 1212 1205 1223 1222 1183 1131 1294 1297 1315 1331 1383 1389 1414 1766 1978 2209 2199 2209 2151 2155 2166 2156 2094 2056 1870 1880 1892 1948 1952 1939 1911 1869 1852 1827 1695 1575 1680 1701 1654 1651 1652 1632 1600 1577 1564 1528 1315 1244 1200 1210 1354 1509 1286 1169 1100 1091 1083 1076 1075 1070 1069 1070 1065 1062 1047 1032 1028 1017 1002 983 978 987 991 1073 1274 1072 1075 1146 1173 1194 1210 1203 1235 1229 1209 1179 1147 1117 1082 1091 1064 1047 1016 976 960 872 910 882 839 805 773 728 709 690 650 625 597 572 554 540 536 455 411 522 511 487 483 466 448 429 400 369 352 326 306 285 271 260 247 228 201 187 169 147 140 123 102 84 66 57 48 38 16 0 0 0 0 0 0 0 0 0 0 0 0 0
0 0 0 0 0 0 0 0 0 0 0 0 0 0 0 0 0 0 0 0 0 0 0 0 0 0 44 80 107 133 154 196 250 324 390 478 524 563 606 659 693 784 842 854 923 967 1002 1050 1070 1100 1157 1183 1227 1269 1306 1370 1430 1481 1541 1616 1652 1694 1745 1784 1850 1914 1984 1998 2019 2061 2108 2146 2197 2229 2282 2325 2353 2380 2428 2477 2533 2584 2340 2402 2354 2031 1724 1563 1532 1458 1299 1260 1282 1328 1278 1238 1269 1050 956 730 771 917 912 989 1042 1028 1099 1175 1199 1216 1215 1223 1221 1097 1142 1252 1281 1279 1310 1337 1375 1413 1686 2087 2279 2268 2304 2270 2241 2226 2159 2107 1865 1551 1708 1773 1800 1913 1911 1882 1854 1829 1798 1772 1753 1720 1685 1656 1645 1624 1621 1598 1584 1552 1548 1500 1298 1198 1201 1289 1493 1461 1194 1102 1094 1089 1080 1080 1086 1079 1076 1073 1068 1051 1038 1031 1023 1019 1010 1020 1038 1207 1267 1202 1173 1239 1246 1257 1269 1302 1294 1294 1283 1251 1216 1186 1158 1136 1130 1104 1085 1049 950 992 967 948 915 871 835 812 779 737 726 690 668 635 619 600 587 577 555 398 407 487 551 544 520 493 474 437 414 385 375 343 322 301 296 278 253 231 212 193 168 153 135 121 101 84 88 71 57 46 34 13 13 0 0 0 0 0 0 0 0 0 0
0 0 0 0 0 0 0 0 0 0 0 0 0 0 0 0 0 0 0 0 0 0 0 0 0 0 41 81 108 136 163 195 249 309 376 457 486 512 564 595 684 742 781 830 888 922 974 997 1048 1103 1143 1181 1209 1261 1301 1363 1408 1488 1552 1591 1639 1696 1744 1804 1873 1919 1960 1988 2006 2054 2107 2149 2201 2218 2265 2310 2360 2402 2442 2492 2539 2580 2180 1983 2108 2072 1786 1535 1395 1361 1241 1112 1201 1174 1179 1135 1129 1100 978 767 773 850 837 915 1032 1045 1122 1179 1183 1207 1215 1198 1141 1036 1143 1221 1258 1265 1288 1308 1366 1576 1873 2202 2326 2286 2255 2240 2205 2172 2128 2086 1854 1526 1423 1683 1505 1764 1882 1848 1825 1805 1769 1755 1721 1696 1664 1629 1629 1615 1601 1596 1580 1572 1554 1464 1276 1207 1190 1190 1217 1308 1357 1136 1114 1100 1087 1092 1091 1085 1084 1077 1071 1061 1047 1038 1048 1060 1049 1055 1072 1125 1309 1345 1355 1351 1345 1343 1352 1359 1353 1338 1332 1290 1266 1232 1217 1188 1165 1145 1108 1083 1077 1037 1010 969 934 896 877 858 805 790 768 738 712 681 665 646 636 635 608 542 342 428 585 591 568 545 515 487 465 436 419 390 353 326 331 314 295 263 231 202 178 169 147 132 120 110 114 89 76 68 57 44 35 25 14 0 0 0 0 0 0 0 0
0 0 0 0 0 0 0 0 0 0 0 0 0 0 0 0 0 0 0 0 0 0 0 0 0 0 20 73 102 124 149 176 232 285 339 389 430 457 479 575 654 712 751 810 858 909 920 994 1041 1079 1125 1183 1206 1257 1299 1349 1404 1497 1553 1569 1638 1704 1754 1803 1866 1905 1942 1981 2003 2039 2086 2120 2160 2210 2251 2295 2339 2385 2435 2483 2540 2588 2406 1992 1748 1859 1654 1390 1313 1233 1206 1118 1040 1094 1133 1057 1119 1169 951 780 694 756 866 1018 1110 1081 1119 1144 1161 1155 1145 1047 1020 1083 1184 1207 1240 1247 1306 1437 1489 1764 2029 2313 2303 2259 2228 2202 2171 2130 2046 1980 1947 1596 1337 1431 1341 1618 1854 1820 1794 1770 1744 1719 1705 1681 1650 1629 1622 1611 1605 1602 1580 1582 1560 1338 1297 1230 1198 1189 1187 1195 1264 1162 1159 1150 1097 1097 1094 1088 1089 1084 1077 1062 1055 1068 1084 1088 1040 1089 1102 1138 1273 1367 1389 1401 1409 1408 1411 1398 1392 1373 1348 1330 1307 1284 1264 1224 1201 1179 1152 1134 1120 1082 1046 1011 971 934 917 885 857 833 801 785 767 751 722 705 693 682 664 613 557 378 636 638 623 596 569 540 503 480 464 432 396 370 365 348 316 284 251 216 197 187 173 153 149 134 124 107 94 85 71 61 46 33 23 0 0 0 0 0 0 0 0
0 0 0 0 0 0 0 0 0 0 0 0 0 0 0 0 0 0 0 0 0 0 0 0 0 0 21 60 88 106 132 156 213 257 302 346 388 452 500 541 614 675 753 797 809 877 925 975 1017 1071 1128 1166 1206 1242 1275 1370 1367 1438 1554 1580 1624 1708 1752 1795 1844 1883 1919 1963 2007 2042 2072 2116 2140 2168 2228 2271 2331 2375 2419 2477 2540 2570 2491 2247 2015 1552 1406 1328 1199 1088 1163 1095 988 1035 1122 1110 990 1129 997 875 669 806 895 1026 1063 969 1073 1065 1094 1148 1108 980 1125 1182 1134 1206 1233 1322 1423 1446 1770 1954 2264 2290 2241 2232 2207 2064 2121 2071 2072 1954 1770 1633 1477 1192 1295 1630 1817 1792 1796 1755 1721 1699 1669 1651 1643 1635 1624 1612 1603 1598 1589 1583 1568 1514 1380 1277 1209 1195 1189 1182 1170 1170 1172 1151 1112 1110 1096 1093 1101 1101 1089 1075 1065 1098 1121 1105 1076 1120 1147 1204 1287 1409 1433 1432 1437 1440 1442 1422 1414 1396 1380 1364 1343 1325 1299 1268 1248 1224 1195 1170 1154 1116 1085 1049 989 976 962 908 897 871 851 834 822 807 778 765 763 740 720 663 403 582 712 687 666 657 623 586 560 534 507 475 450 417 396 368 342 314 280 248 232 212 199 187 172 154 134 124 111 98 93 72 63 37 15 0 0 0 0 0 0 0 0
0 0 0 0 0 0 0 0 0 0 0 0 0 0 0 0 0 0 0 0 0 0 0 0 0 0 12 46 64 79 100 130 176 229 270 268 359 429 469 521 607 676 716 733 807 839 898 958 1013 1047 1098 1097 1157 1226 1276 1326 1432 1503 1544 1595 1618 1657 1746 1792 1828 1869 1913 1953 1992 2020 2056 2084 2112 2162 2199 2247 2297 2352 2399 2462 2518 2543 2457 2101 1888 1892 1740 1363 1180 1048 1061 971 937 999 1112 1061 1027 995 950 732 658 765 812 956 868 946 1033 1073 1101 1154 1148 1035 1067 1077 1113 1253 1289 1356 1390 1493 1780 2188 2284 2257 2220 2181 2153 1979 1818 1801 1922 1993 1751 1469 1309 1080 1484 1696 1772 1773 1753 1736 1795 1747 1693 1664 1650 1636 1622 1614 1604 1602 1590 1576 1571 1560 1484 1365 1265 1199 1198 1187 1179 1175 1172 1156 1175 1125 1100 1112 1122 1120 1109 1102 1086 1144 1147 1139 1075 1141 1157 1234 1318 1420 1489 1464 1464 1467 1467 1461 1445 1427 1417 1398 1391 1370 1349 1321 1286 1263 1226 1200 1172 1144 1106 1076 1049 1033 993 971 936 919 898 888 880 870 839 827 817 800 775 620 479 605 746 730 725 705 670 642 597 596 554 525 491 448 430 392 372 363 340 290 271 237 229 209 191 168 150 143 127 126 105 84 64 58 27 1 0 0 0 0 0 0 0
0 0 0 0 0 0 0 0 0 0 0 0 0 0 0 0 0 0 0 0 0 0 0 0 0 0 0 25 37 51 75 119 156 199 232 274 333 386 443 518 493 640 700 746 788 829 882 933 975 1010 1075 1128 1172 1223 1281 1340 1410 1485 1535 1602 1640 1680 1725 1766 1810 1855 1898 1928 1959 1984 2011 2045 2083 2140 2174 2206 2261 2320 2373 2426 2457 2497 2528 2313 1979 1768 1657 1390 1156 1049 1084 1108 964 943 1083 1094 992 957 890 672 686 650 732 805 834 987 1053 1087 1128 1138 1058 1000 961 1074 1191 1297 1327 1410 1556 1374 1761 2067 2138 2149 2136 2135 1917 1646 1542 1468 1663 1952 1763 1476 1200 1009 1347 1566 1765 1753 1732 1722 1756 1732 1694 1662 1652 1638 1625 1617 1609 1596 1587 1590 1580 1573 1561 1539 1299 1225 1215 1199 1186 1180 1190 1188 1237 1200 1167 1149 1149 1147 1138 1138 1179 1198 1181 1168 1158 1161 1176 1273 1384 1490 1528 1514 1514 1509 1504 1496 1475 1462 1454 1440 1423 1411 1388 1368 1336 1300 1260 1229 1205 1176 1142 1108 1106 1072 1047 1008 981 969 942 943 937 929 911 894 885 855 718 521 442 686 793 787 772 751 725 699 661 637 608 573 530 485 452 417 403 391 360 331 304 265 258 236 214 190 172 159 149 124 113 93 74 76 64 12 0 0 0 0 0 0 0
0 0 0 0 0 0 0 0 0 0 0 0 0 0 0 0 0 0 0 0 0 0 0 0 0 0 0 5 11 20 44 104 136 134 220 270 313 297 372 480 560 628 670 716 766 824 859 904 936 995 1031 1102 1152 1204 1264 1339 1412 1461 1507 1581 1618 1679 1721 1762 1793 1840 1878 1913 1923 1963 1982 2012 2067 2116 2155 2193 2237 2282 2328 2364 2413 2440 2480 2465 2242 2032 1659 1361 1325 1258 1174 1075 929 949 1105 1085 1069 974 812 714 703 628 807 868 960 1020 983 1055 1123 996 950 919 1027 1060 1221 1259 1324 1434 1380 1378 1738 2067 2077 1861 1774 1966 1817 1404 1316 1269 1540 1886 1827 1614 1328 996 1200 1474 1607 1659 1719 1731 1711 1693 1702 1669 1652 1638 1626 1614 1607 1605 1614 1605 1591 1583 1567 1536 1342 1296 1245 1271 1244 1218 1241 1191 1198 1201 1200 1188 1172 1173 1170 1168 1226 1219 1196 1196 1185 1181 1203 1271 1430 1537 1559 1553 1554 1544 1526 1516 1503 1492 1482 1475 1456 1449 1437 1411 1377 1347 1309 1272 1245 1220 1179 1151 1139 1114 1102 1073 1040 1020 1005 996 1000 990 987 960 933 914 629 570 654 846 835 832 819 802 774 754 730 696 671 621 569 521 477 445 433 421 384 357 326 290 281 253 226 211 198 175 151 129 112 95 83 69 50 35 18 0 0 0 0 0 0
0 0 0 0 0 0 0 0 0 0 0 0 0 0 0 0 0 0 0 0 0 0 0 0 0 0 0 0 0 1 8 6 120 158 200 232 271 344 403 476 544 591 644 689 736 797 829 836 895 962 1015 1069 1126 1189 1259 1326 1384 1446 1503 1569 1624 1669 1713 1752 1786 1822 1858 1887 1908 1931 1967 2008 2055 2112 2143 2179 2210 2265 2300 2334 2353 2388 2440 2488 2476 2132 1778 1481 1258 1142 1051 938 888 1011 1085 1076 975 823 776 623 608 714 793 906 851 859 948 1042 1028 900 940 1015 1115 1204 1197 1311 1356 1312 1244 1343 1684 1998 1975 1743 1622 1677 1858 1532 1213 1312 1544 1858 1663 1464 1272 1124 1131 1441 1238 1565 1731 1739 1733 1719 1714 1670 1654 1640 1626 1613 1605 1619 1627 1613 1600 1587 1576 1563 1493 1333 1266 1358 1381 1308 1238 1212 1203 1212 1212 1213 1199 1206 1201 1218 1244 1238 1223 1214 1200 1188 1230 1308 1506 1616 1603 1611 1589 1573 1538 1533 1529 1530 1524 1509 1498 1484 1476 1441 1424 1392 1358 1325 1304 1281 1212 1220 1188 1179 1160 1130 1106 1086 1071 1072 1075 1062 1050 1016 994 943 674 594 836 913 885 886 870 856 836 802 780 751 719 661 615 563 533 494 472 448 421 392 368 333 315 283 252 239 205 182 158 138 114 102 90 72 50 35 21 0 0 0 0 0 0
0 0 0 0 0 0 0 0 0 0 0 0 0 0 0 0 0 0 0 0 0 0 0 0 0 0 0 0 0 0 0 25 84 137 166 189 242 302 380 443 495 561 609 664 720 757 759 798 862 918 975 1026 1101 1152 1239 1298 1375 1441 1500 1562 1612 1661 1698 1734 1770 1795 1828 1857 1887 1918 1962 2004 2045 2090 2132 2157 2198 2234 2278 2300 2321 2346 2400 2377 2460 2140 1797 1449 1165 1093 988 921 846 1036 1066 1081 1006 806 705 584 700 802 770 812 834 978 970 968 889 923 1060 1161 1197 1239 1271 1371 1265 1201 1197 1411 1686 1972 2160 1977 1632 1545 1708 1297 1075 1272 1508 1637 1542 1268 1120 907 1190 1245 1261 1554 1734 1758 1819 1814 1765 1682 1672 1639 1628 1618 1608 1619 1651 1632 1614 1598 1589 1571 1551 1410 1323 1361 1339 1319 1242 1239 1225 1221 1223 1235 1242 1254 1266 1282 1262 1255 1236 1233 1239 1217 1309 1517 1537 1579 1694 1684 1624 1593 1562 1566 1564 1568 1567 1561 1536 1521 1505 1481 1464 1456 1428 1412 1393 1356 1319 1309 1252 1244 1222 1197 1171 1150 1148 1139 1139 1126 1100 1085 1066 998 571 564 640 920 968 936 932 905 888 852 835 811 761 719 655 612 586 552 527 494 485 461 422 405 353 323 295 260 229 198 175 156 119 99 83 72 59 37 24 9 0 0 0 0 0
0 0 0 0 0 0 0 0 0 0 0 0 0 0 0 0 0 0 0 0 0 0 0 0 0 0 0 0 0 0 0 0 52 97 112 153 220 298 342 397 463 523 567 621 669 694 729 774 832 871 926 991 1033 1126 1206 1270 1350 1413 1477 1546 1587 1629 1672 1716 1744 1773 1812 1837 1837 1900 1948 1984 2029 2069 2094 2136 2177 2213 2240 2262 2268 2306 2311 2373 2427 2198 1767 1434 1125 1028 1016 852 832 976 1049 980 941 770 611 652 553 707 695 771 915 942 948 794 853 1013 1130 1239 1275 1292 1349 1425 1289 1129 1218 1384 1752 2120 2180 1962 1604 1310 1235 1080 998 1173 1204 1426 1525 1089 957 883 1005 988 1277 1538 1729 1794 1831 1836 1771 1724 1664 1644 1632 1616 1608 1608 1633 1678 1617 1607 1602 1585 1556 1438 1407 1429 1403 1454 1311 1277 1265 1239 1235 1258 1276 1284 1287 1292 1276 1275 1270 1270 1287 1264 1377 1552 1584 1597 1652 1699 1682 1605 1597 1605 1612 1603 1611 1595 1582 1552 1539 1529 1524 1518 1510 1482 1467 1425 1398 1354 1335 1306 1281 1261 1235 1231 1211 1204 1191 1192 1167 1162 1146 1105 939 726 521 826 1024 996 976 964 942 909 891 852 819 761 706 678 654 605 568 554 543 522 485 462 434 364 322 288 251 229 198 167 137 96 77 65 52 39 26 19 2 0 0 0 0
0 0 0 0 0 0 0 0 0 0 0 0 0 0 0 0 0 0 0 0 0 0 0 0 0 0 0 0 0 0 0 0 1 75 114 151 199 248 289 350 414 480 506 547 550 669 702 758 803 835 858 947 948 1043 1092 1174 1258 1380 1462 1518 1564 1614 1657 1687 1726 1765 1776 1785 1831 1879 1915 1966 2000 2037 2069 2104 2154 2179 2202 2236 2250 2285 2306 2335 2363 2183 1802 1490 1193 1012 954 882 800 992 1016 868 940 783 667 610 539 758 689 790 859 839 840 828 1013 1103 1223 1020 1023 1080 1176 1278 1160 1078 1340 1565 1808 2155 2143 1925 1528 1286 1157 1108 1134 951 941 1139 1451 1316 1299 1093 862 985 1229 1579 1728 1836 1898 1774 1733 1707 1659 1650 1638 1619 1601 1604 1599 1609 1614 1607 1601 1590 1570 1509 1494 1496 1513 1496 1325 1309 1322 1313 1302 1284 1287 1301 1303 1301 1299 1303 1319 1333 1354 1271 1455 1582 1638 1660 1675 1662 1650 1634 1643 1647 1654 1642 1648 1634 1616 1601 1590 1578 1585 1582 1566 1548 1522 1493 1463 1431 1398 1371 1351 1339 1309 1310 1308 1288 1282 1264 1229 1225 1201 1078 800 580 732 951 1069 1072 1042 1022 1010 978 944 905 869 823 791 741 707 665 637 619 591 573 532 509 487 411 353 317 278 253 218 184 163 128 93 72 50 39 32 16 1 0 0 0 0
0 0 0 0 0 0 0 0 0 0 0 0 0 0 0 0 0 0 0 0 0 0 0 0 0 0 0 0 0 0 0 0 0 35 87 134 180 202 255 315 381 412 492 529 582 639 693 735 784 807 840 908 987 1075 1159 1241 1306 1378 1445 1499 1539 1588 1634 1680 1699 1758 1760 1779 1812 1854 1901 1944 1971 2009 2029 2075 2112 2134 2164 2192 2188 2234 2261 2299 2316 2218 1900 1627 1306 1073 1011 882 800 948 1026 855 702 682 549 559 692 658 707 813 724 749 795 1010 1236 1021 1101 958 955 957 989 1161 1048 1204 1399 1628 1929 2135 2099 2023 1633 1483 1424 1479 1194 1152 892 962 1276 1540 1328 1131 851 923 1237 1358 1611 1764 1784 1738 1719 1686 1660 1643 1632 1618 1604 1599 1597 1598 1598 1604 1600 1589 1584 1568 1570 1581 1595 1437 1358 1373 1382 1381 1388 1345 1317 1344 1321 1318 1344 1368 1389 1405 1419 1329 1503 1658 1702 1721 1716 1700 1696 1676 1690 1709 1692 1694 1682 1656 1644 1646 1646 1647 1654 1641 1617 1596 1577 1554 1531 1495 1481 1449 1434 1422 1391 1407 1401 1377 1372 1335 1294 1299 1168 903 838 696 827 1062 1160 1142 1115 1103 1072 1056 1024 965 924 894 853 799 763 736 688 669 638 609 564 511 464 434 386 345 302 272 235 211 190 153 132 94 72 47 40 28 0 0 0 0 0
0 0 0 0 0 0 0 0 0 0 0 0 0 0 0 0 0 0 0 0 0 0 0 0 0 0 0 0 0 0 0 0 0 4 36 89 152 151 168 272 336 415 479 532 582 610 609 697 766 806 855 913 977 1063 1149 1236 1283 1358 1427 1483 1526 1564 1610 1669 1703 1705 1715 1769 1795 1832 1877 1916 1948 1974 2008 2039 2075 2093 2119 2125 2162 2200 2230 2256 2278 2314 2084 1801 1522 1214 1075 1026 801 876 793 722 628 539 632 588 574 534 572 577 679 847 931 1086 1069 918 936 890 928 925 937 1037 1007 1248 1394 1691 2023 2088 2043 1994 1930 1840 1777 1556 1243 1005 843 1007 1180 1433 1156 969 865 1097 1192 1297 1592 1695 1670 1659 1663 1657 1640 1626 1621 1610 1597 1595 1594 1595 1596 1599 1595 1600 1623 1618 1613 1621 1616 1458 1399 1429 1422 1424 1424 1392 1371 1334 1332 1326 1353 1421 1457 1484 1500 1528 1637 1740 1763 1768 1772 1748 1741 1730 1730 1748 1727 1730 1717 1710 1682 1693 1695 1707 1716 1695 1660 1636 1632 1619 1598 1566 1550 1535 1513 1513 1500 1509 1506 1480 1477 1428 1400 1403 1108 663 640 683 946 1165 1310 1250 1227 1193 1148 1114 1076 1025 983 948 906 875 832 778 748 716 673 625 604 551 508 460 414 383 338 307 261 237 208 190 149 104 81 52 42 28 0 0 0 0 0
0 0 0 0 0 0 0 0 0 0 0 0 0 0 0 0 0 0 0 0 0 0 0 0 0 0 0 0 0 0 0 0 0 4 72 118 164 171 237 279 327 387 438 504 564 605 660 712 754 794 837 894 964 1045 1144 1215 1294 1364 1406 1458 1508 1545 1585 1631 1659 1663 1709 1747 1776 1811 1850 1888 1920 1943 1981 2004 2023 2054 2032 2033 2133 2162 2186 2223 2240 2271 2268 2006 1833 1601 1360 1060 729 689 594 592 616 558 593 527 509 619 727 767 887 1037 1000 1095 976 869 836 871 889 902 850 873 973 1165 1373 1608 1987 2025 1997 1963 1946 1915 1747 1372 1064 818 940 1060 1135 1342 1080 835 1019 1103 1018 1244 1516 1653 1610 1631 1637 1636 1616 1615 1607 1598 1593 1593 1591 1594 1595 1596 1597 1605 1639 1731 1659 1630 1611 1515 1467 1457 1453 1451 1447 1434 1362 1348 1338 1336 1367 1489 1529 1553 1566 1567 1730 1804 1814 1824 1806 1812 1805 1796 1807 1796 1776 1770 1783 1782 1730 1739 1757 1763 1762 1733 1711 1680 1683 1677 1653 1626 1614 1621 1618 1606 1617 1615 1616 1503 1372 1205 1035 1166 1083 822 666 963 1144 1375 1401 1357 1300 1263 1217 1173 1129 1079 1021 994 946 911 869 834 787 752 700 666 635 603 536 495 453 434 386 331 280 260 235 205 169 121 89 75 56 35 0 0 0 0 0
0 0 0 0 0 0 0 0 0 0 0 0 0 0 0 0 0 0 0 0 0 0 0 0 0 0 0 0 0 0 0 0 0 3 5 73 153 199 245 293 352 406 465 510 548 596 634 692 738 784 831 880 951 1047 1123 1208 1290 1339 1400 1443 1480 1520 1554 1588 1629 1638 1681 1725 1756 1793 1816 1862 1894 1916 1939 1960 1989 1936 1867 2058 2082 2123 2153 2164 2160 2210 2193 2204 2096 1828 1555 1094 911 775 757 766 689 501 491 486 503 642 732 915 961 998 986 1040 915 811 804 846 883 801 892 1009 1035 1097 1363 1661 2005 1987 1946 1894 1899 1868 1653 1335 1027 805 846 1023 1044 1264 1087 845 812 961 990 1216 1545 1592 1611 1614 1621 1610 1602 1592 1589 1590 1588 1587 1591 1591 1596 1599 1599 1606 1649 1747 1666 1662 1622 1647 1484 1458 1462 1460 1476 1473 1379 1370 1356 1360 1458 1581 1607 1614 1609 1613 1715 1836 1870 1883 1857 1859 1856 1856 1875 1831 1821 1818 1837 1834 1803 1803 1813 1805 1807 1790 1758 1743 1735 1736 1709 1682 1684 1693 1712 1694 1705 1647 1367 1304 1096 945 784 942 765 680 995 1134 1299 1492 1457 1416 1372 1334 1286 1239 1198 1127 1078 1028 980 949 911 854 808 780 738 713 683 659 602 541 511 460 400 355 320 293 258 231 188 145 105 74 60 41 0 0 0 0 0
0 0 0 0 0 0 0 0 0 0 0 0 0 0 0 0 0 0 0 0 0 0 0 0 0 0 0 0 0 0 0 0 0 3 14 71 145 181 227 287 342 401 463 510 558 593 647 684 716 762 829 896 963 1039 1113 1193 1266 1333 1374 1426 1466 1489 1512 1545 1574 1612 1660 1692 1731 1751 1785 1826 1858 1889 1902 1919 1849 1625 1894 2017 2050 2081 2101 2107 2058 2090 2107 2109 2101 2017 1710 1413 953 891 847 731 638 485 475 474 551 692 844 933 988 914 937 896 875 743 777 806 779 821 936 1071 1141 1169 1363 1717 1958 1920 1892 1869 1810 1833 1573 1318 1003 829 761 805 949 1078 1322 1026 789 865 1091 1406 1541 1570 1596 1601 1601 1593 1591 1588 1586 1584 1584 1593 1596 1593 1599 1600 1602 1615 1687 1825 1719 1687 1638 1623 1538 1468 1467 1467 1482 1492 1397 1423 1412 1526 1518 1644 1674 1695 1666 1709 1717 1905 1926 1933 1930 1899 1915 1952 1927 1899 1884 1873 1870 1858 1860 1858 1885 1854 1840 1828 1801 1807 1793 1780 1764 1751 1743 1769 1798 1603 1453 1370 1143 909 856 854 972 836 818 915 1093 1360 1549 1517 1493 1456 1426 1384 1332 1292 1239 1175 1113 1069 1020 976 948 871 830 808 789 762 733 680 646 602 547 485 425 374 342 303 280 247 205 160 121 95 75 43 0 0 0 0 0
0 0 0 0 0 0 0 0 0 0 0 0 0 0 0 0 0 0 0 0 0 0 0 0 0 0 0 0 0 0 0 0 0 7 34 84 145 182 235 289 352 393 441 499 539 595 627 669 721 764 821 890 980 1040 1113 1180 1250 1320 1372 1421 1446 1460 1479 1514 1490 1582 1621 1660 1685 1721 1750 1782 1821 1845 1861 1872 1751 1612 1903 1933 1998 2007 2038 2020 1968 1990 1987 1994 1982 1981 1833 1437 1199 919 823 773 737 655 563 456 592 695 832 869 937 896 874 819 736 651 686 702 748 880 971 1117 1214 1284 1385 1775 1900 1852 1845 1823 1789 1783 1593 1322 1046 1046 901 878 734 917 1190 1095 793 818 1098 1421 1530 1551 1565 1579 1578 1581 1583 1582 1583 1587 1585 1588 1593 1598 1602 1608 1611 1641 1649 1676 1676 1664 1661 1600 1544 1488 1477 1488 1512 1556 1428 1483 1551 1645 1668 1680 1719 1772 1795 1878 1869 1863 1968 1978 1973 1951 1954 1997 2004 1969 1935 1926 1914 1907 1916 1898 1891 1893 1865 1853 1858 1861 1841 1829 1831 1817 1822 1646 1466 1385 1117 1152 1011 938 1122 1253 1198 1045 1035 1097 1278 1556 1550 1537 1518 1489 1461 1415 1369 1326 1273 1219 1157 1089 1034 1004 972 928 876 840 815 787 754 707 675 634 581 509 442 394 358 323 295 258 220 177 141 104 106 32 0 0 0 0 0
0 0 0 0 0 0 0 0 0 0 0 0 0 0 0 0 0 0 0 0 0 0 0 0 0 0 0 0 0 0 0 0 0 5 21 65 135 174 218 251 317 319 412 469 523 579 620 655 683 751 823 903 955 1058 1109 1172 1223 1302 1354 1406 1421 1442 1454 1454 1507 1547 1585 1613 1655 1679 1714 1743 1777 1795 1814 1803 1505 1667 1709 1835 1927 1875 1958 1932 1912 1850 1867 1865 1886 1890 1909 1741 1454 1334 941 842 678 589 583 451 576 721 795 755 831 788 795 737 580 631 766 865 923 912 941 1057 1088 1209 1510 1841 1842 1829 1807 1778 1751 1679 1605 1318 1095 935 986 919 700 830 1147 1005 757 796 1156 1459 1512 1518 1421 1527 1559 1566 1574 1591 1595 1586 1584 1588 1591 1597 1605 1611 1626 1633 1639 1675 1683 1681 1696 1699 1651 1562 1529 1528 1580 1655 1499 1611 1634 1842 1730 1719 1764 1814 1829 1971 1989 1995 2010 2025 2025 2037 2005 2023 2016 2003 1980 1977 1958 1950 1945 1934 1920 1935 1910 1899 1904 1924 1887 1885 1892 1893 1634 1377 1278 1264 1192 1010 1088 1047 1331 1500 1473 1413 1431 1445 1579 1586 1571 1559 1542 1505 1471 1423 1397 1342 1302 1249 1208 1130 1081 1028 996 964 922 875 828 799 763 726 686 630 618 537 471 422 379 339 307 269 231 186 141 125 141 51 21 0 0 0 0
0 0 0 0 0 0 0 0 0 0 0 0 0 0 0 0 0 0 0 0 0 0 0 0 0 0 0 0 0 0 0 0 0 6 44 85 141 180 219 268 319 368 416 467 511 547 591 648 698 764 824 894 953 1060 1123 1156 1226 1301 1362 1392 1412 1417 1440 1435 1471 1503 1557 1586 1613 1650 1678 1700 1736 1744 1758 1790 1505 1601 1585 1743 1747 1721 1806 1836 1800 1794 1779 1770 1808 1828 1893 1805 1776 1356 970 687 607 537 514 450 622 719 752 705 671 706 614 596 620 805 810 877 948 952 972 1034 1191 1404 1726 1832 1816 1793 1746 1743 1715 1644 1659 1420 1222 1062 929 791 743 765 1077 797 711 835 1116 1254 1444 1321 1132 1355 1549 1581 1581 1595 1588 1580 1583 1588 1592 1604 1613 1619 1633 1642 1652 1668 1678 1685 1733 1763 1747 1740 1722 1728 1736 1765 1573 1715 1816 1906 1900 1823 1820 1844 1893 2018 2038 2038 2039 2050 2067 2080 2049 2066 2058 2036 2029 2017 2016 2002 2006 1991 1969 1975 1968 1949 1961 1968 1937 1947 1954 1732 1527 1538 1354 1301 1315 1054 1214 1289 1617 1671 1667 1660 1646 1637 1619 1601 1584 1561 1543 1498 1474 1440 1415 1372 1320 1261 1223 1173 1119 1067 1025 977 928 865 831 798 770 747 707 645 582 517 464 424 388 344 304 266 227 180 136 102 58 45 24 0 0 0 0
0 0 0 0 0 0 0 0 0 0 0 0 0 0 0 0 0 0 0 0 0 0 0 0 0 0 0 0 0 0 0 0 0 8 45 94 142 179 217 264 315 358 407 449 464 532 583 632 682 749 821 896 962 1030 1104 1191 1256 1308 1343 1384 1390 1388 1418 1405 1438 1487 1523 1544 1585 1611 1640 1663 1683 1704 1703 1744 1571 1402 1528 1564 1650 1601 1632 1762 1735 1714 1721 1703 1703 1732 1777 1725 1695 1434 957 710 547 466 466 437 556 653 659 604 545 553 527 608 716 808 1001 1000 934 939 1103 1259 1435 1680 1812 1777 1771 1735 1735 1685 1660 1643 1617 1594 1530 1353 1186 1022 737 675 797 691 717 731 785 987 1134 1055 1201 1460 1547 1565 1572 1584 1586 1588 1591 1590 1602 1613 1613 1626 1638 1652 1663 1668 1676 1694 1750 1831 1813 1787 1809 1819 1842 1849 1855 1900 1953 1982 1986 1960 1948 1906 1952 2041 2097 2075 2059 2078 2099 2108 2125 2097 2097 2087 2073 2047 2051 2043 2059 2028 2031 2008 2025 2016 2002 1986 1993 2001 1864 1616 1597 1710 1696 1486 1379 1092 1302 1547 1682 1683 1678 1667 1657 1645 1640 1616 1599 1581 1549 1519 1492 1465 1428 1376 1322 1273 1226 1179 1129 1081 1043 982 923 864 816 799 798 773 706 642 574 510 451 426 397 346 314 277 230 187 129 8 27 35 1 0 0 0 0
0 0 0 0 0 0 0 0 0 0 0 0 0 0 0 0 0 0 0 0 0 0 0 0 0 0 0 0 0 0 0 0 0 5 38 80 124 167 211 257 297 337 384 432 482 524 539 597 643 710 783 874 966 1029 1100 1161 1231 1256 1322 1295 1348 1372 1387 1387 1425 1448 1488 1517 1551 1585 1610 1624 1640 1655 1674 1655 1519 1365 1451 1421 1541 1518 1502 1683 1683 1664 1629 1614 1569 1537 1535 1640 1625 1482 1123 1033 635 466 492 583 590 630 509 480 468 520 667 789 900 790 806 934 1004 1203 1416 1555 1789 1767 1770 1749 1717 1711 1685 1658 1561 1618 1591 1536 1521 1478 1269 1039 804 619 619 664 744 819 852 827 851 971 1328 1530 1543 1555 1561 1570 1578 1583 1594 1604 1613 1616 1618 1624 1643 1648 1664 1677 1690 1707 1761 1876 1850 1807 1871 1889 1862 1894 1896 1926 1988 2031 2048 2028 2030 2032 2015 2095 2127 2105 2086 2106 2144 2168 2175 2124 2132 2122 2117 2075 2076 2085 2118 2096 1921 1895 2080 2073 2063 2052 2057 1876 1735 1730 1717 1721 1719 1711 1427 1146 1395 1699 1698 1695 1684 1678 1667 1665 1652 1630 1619 1592 1561 1518 1499 1463 1426 1376 1329 1281 1227 1185 1136 1097 1054 988 916 852 783 727 723 723 692 658 582 515 445 426 471 405 330 289 231 167 120 0 0 0 0 0 0 0 0
0 0 0 0 0 0 0 0 0 0 0 0 0 0 0 0 0 0 0 0 0 0 0 0 0 0 0 0 0 0 0 0 0 8 33 79 121 156 193 239 286 331 372 396 445 474 506 558 604 666 747 857 950 1011 1092 1203 1193 1210 1222 1260 1291 1332 1354 1359 1390 1425 1456 1483 1526 1560 1579 1597 1602 1616 1612 1534 1443 1366 1397 1360 1440 1408 1478 1623 1608 1588 1546 1558 1487 1448 1439 1593 1579 1574 1496 1312 985 754 495 518 447 553 462 578 656 687 698 750 865 959 1011 1178 1383 1583 1716 1794 1781 1736 1701 1692 1665 1667 1634 1630 1533 1570 1542 1514 1347 1214 1086 834 675 590 694 844 932 979 959 1065 1108 1290 1499 1522 1535 1540 1553 1562 1569 1576 1589 1625 1629 1626 1625 1626 1638 1655 1668 1680 1711 1710 1747 1808 1874 1823 1894 1907 1907 1928 1928 1961 1967 2030 2070 2062 2069 2111 2114 2111 2182 2124 2110 2122 2135 2216 2173 2151 2150 2148 2162 2122 2101 2124 2141 1945 1799 1795 1889 1826 1936 1805 1767 1758 1751 1738 1726 1729 1727 1705 1268 1305 1552 1711 1711 1707 1702 1695 1686 1680 1661 1643 1620 1584 1550 1522 1494 1450 1414 1381 1325 1283 1224 1183 1147 1089 1045 994 926 844 774 707 671 633 649 545 480 441 434 421 431 354 330 263 186 140 46 0 0 0 0 0 0 0 0
